ply
format ascii 1.0
element vertex 1363
property float x
property float y
property float z
property uchar red
property uchar green
property uchar blue
end_header
1.30401 0.0621729 6.48161 80 86 71
1.16173 0.197206 6.52208 112 115 102
1.26833 0.157243 7.1413 110 107 76
0.895957 0.275973 6.2048 144 147 118
0.626095 0.27884 6.32762 116 118 85
1.19547 0.197067 7.29049 160 160 121
1.36771 0.233504 6.95838 154 163 124
0.893216 0.333652 6.10219 132 136 113
1.12224 0.233496 7.23678 106 96 78
1.17133 0.239155 7.19537 166 159 124
1.13327 0.24359 7.19769 116 104 79
1.14256 0.262904 7.25968 40 16 2
0.197172 0.430397 6.98219 52 37 12
1.51292 0.446514 6.9985 152 127 94
0.532227 0.515112 6.4767 90 92 84
1.45783 0.510252 6.77826 44 24 10
1.49655 0.583123 6.63872 100 58 34
0.281856 0.634345 6.42231 84 42 26
0.401619 0.641813 6.46001 27 12 4
1.52026 0.631474 6.63505 113 71 50
1.00355 0.641659 6.31526 80 62 48
1.52803 0.646488 6.68529 176 145 130
1.51788 0.665392 6.64104 98 65 49
1.42415 0.689341 6.40649 116 96 78
1.06303 0.727082 6.18988 26 6 4
1.03764 0.747491 6.16536 96 62 49
0.782738 0.749164 5.73321 132 111 80
1.32599 0.774178 6.30658 158 140 133
1.53064 0.785937 6.18221 88 88 67
0.932468 0.833238 6.25367 77 30 8
0.988869 0.830008 6.33814 71 34 20
1.23545 0.876314 6.41438 80 58 55
1.5792 0.850056 6.10779 156 155 138
1.2952 0.934014 6.54468 60 32 28
0.893081 0.875331 5.64781 84 88 68
1.3747 0.98483 6.74268 119 94 89
1.16138 1.01267 6.45917 137 108 104
1.20732 1.02892 6.52491 128 106 105
1.2048 1.04147 6.53523 113 90 88
1.36466 1.07773 6.74123 32 9 5
0.986189 1.11432 6.48499 128 101 96
1.34215 1.19259 6.91125 68 34 28
1.3106 1.21099 6.84868 50 20 15
1.16949 1.18544 6.63873 46 20 16
1.18389 1.21747 6.64595 44 18 16
1.00095 1.27241 6.56524 112 67 60
1.15896 1.32126 6.745 126 98 98
1.23316 1.45169 7.04111 92 60 58
0.969197 1.41543 6.72568 122 89 82
0.981285 1.41182 6.7276 82 34 27
0.749395 1.46806 6.81516 129 92 86
0.953391 1.55368 6.84619 94 53 46
0.0232673 1.22687 5.36429 114 104 90
1.02452 1.57788 6.89504 116 80 76
0.730304 1.22912 5.36475 80 68 54
-0.454597 -0.739629 6.08291 100 94 50
-0.115227 -1.16307 7.30832 120 122 69
-0.222163 -0.574769 6.20062 158 158 112
1.3613 0.00702243 6.46133 84 90 72
1.30256 0.0533051 6.56519 100 104 90
0.697541 0.135272 6.56232 152 155 110
-0.350065 0.149157 6.71655 110 88 39
1.61932 0.125079 6.88436 64 44 14
1.1236 0.220799 7.41229 108 98 80
1.13861 0.236105 7.28475 101 88 62
1.40295 0.35208 7.02374 85 71 42
0.179261 0.392543 7.07306 122 98 76
0.277669 0.386535 7.14438 136 128 92
0.366057 0.409243 6.91172 32 22 6
0.984856 0.427254 6.77169 94 90 83
0.202097 0.428108 6.96098 60 42 16
0.236804 0.601712 5.75968 146 144 106
0.359369 0.648179 6.45296 76 50 40
0.405902 0.644637 6.50252 127 120 110
0.390462 0.731125 6.4317 88 50 24
1.30486 0.763964 6.2825 121 100 92
1.32471 0.776291 6.29107 163 143 138
0.277981 0.825051 6.65381 103 78 56
1.38715 0.907671 6.61945 42 18 14
1.01375 0.901156 6.33529 28 7 4
0.316261 1.04185 6.89448 50 20 8
1.20464 1.03233 6.53137 122 99 98
0.986334 1.11515 6.48537 113 84 78
1.20607 1.12538 6.62875 38 20 18
1.18181 1.18338 6.63507 120 98 96
1.16594 1.18965 6.64621 54 26 21
1.04299 1.25958 6.62692 113 75 72
1.28586 1.33011 6.98262 124 90 86
0.963979 1.44465 6.77073 108 78 72
0.644469 1.50991 6.81246 110 94 73
0.942755 1.55087 6.84139 81 36 28
0.969639 1.56206 6.85595 70 30 26
0.420421 -0.0814037 6.57148 158 159 112
0.488142 -0.0244489 6.54824 136 141 99
0.472338 0.160793 6.39941 66 69 38
1.19127 0.192205 7.31294 162 171 127
1.25104 0.218775 7.29049 167 170 129
1.1551 0.230068 7.31329 165 164 125
1.19687 0.252814 7.28669 102 74 52
0.17407 0.3028 6.90738 174 159 113
1.65158 0.312236 6.72356 151 116 100
1.4381 0.32369 7.03341 164 162 126
0.289861 0.38644 7.09031 157 150 112
0.984207 0.425748 6.77161 88 84 78
1.46776 0.413411 7.03506 155 136 113
1.45923 0.431022 6.96408 59 33 14
1.44321 0.628263 6.62105 122 84 62
1.49715 0.642656 6.42841 176 146 132
0.443359 0.68205 6.46647 92 79 82
1.32235 0.780946 6.33984 146 128 122
0.461158 0.827842 6.37438 62 26 17
0.548476 0.831876 6.31064 144 98 76
1.24107 0.874914 6.44244 58 36 33
1.16737 1.1976 6.68832 52 24 20
1.67488 1.1337 6.09483 65 37 14
1.28646 1.31476 6.93081 122 86 82
0.978339 1.28907 6.62296 126 104 103
0.975282 1.31091 6.6424 114 92 88
1.23859 1.45644 7.06065 92 60 58
0.966738 1.45647 6.92615 99 63 58
0.957597 1.55468 6.87443 116 78 72
1.03598 1.57678 6.90908 66 29 25
0.160423 -0.924281 6.9906 142 144 97
1.97251 -0.440403 6.17471 114 116 72
0.0434177 -0.381165 6.30181 111 116 69
0.289713 -0.0272706 6.30112 108 104 82
1.35732 0.0150149 6.42761 78 84 66
0.470786 0.149805 6.37548 96 98 70
-0.377246 0.140553 6.78857 106 82 37
1.61817 0.123783 6.88877 54 35 8
1.1617 0.193525 6.50816 74 77 62
1.18919 0.194277 7.27174 162 171 127
1.34677 0.236652 7.04949 164 176 134
1.14928 0.239736 7.17552 158 149 114
1.19825 0.249647 7.29628 106 79 55
1.13424 0.276226 7.13566 31 14 3
1.44202 0.309792 7.06453 165 168 130
1.58732 0.362326 6.69423 164 124 110
0.363938 0.403923 6.93766 36 24 9
0.233593 0.400165 7.23797 58 28 11
0.199632 0.421228 6.99192 47 26 4
1.49524 0.510228 6.60052 86 42 15
1.46227 0.519974 6.81069 82 63 48
1.52639 0.550843 6.64169 128 80 64
1.45342 0.560121 6.68315 40 19 8
1.44132 0.652362 6.58944 171 147 136
1.51177 0.668997 6.58405 106 74 58
1.45233 0.706897 6.37374 144 120 104
1.05464 0.723358 6.18062 101 71 67
0.882003 0.716708 5.73248 121 127 104
1.01958 0.777058 6.2218 44 16 10
0.268217 0.826335 6.69745 88 60 38
0.897878 0.762737 5.82047 148 110 88
1.00744 0.806868 6.28615 173 144 142
1.29121 0.935639 6.54227 64 36 32
1.20274 1.03517 6.54027 106 82 81
0.989254 1.0398 6.43085 96 68 61
0.986729 1.11908 6.48093 116 90 84
1.2872 1.30946 6.91014 116 80 77
0.973097 1.30407 6.63158 100 71 68
0.983791 1.4128 6.71919 78 27 22
0.97445 1.56199 6.85344 70 28 24
0.9167 1.58017 6.88745 120 74 58
0.951657 1.60717 6.85467 97 60 46
1.6339 0.145804 6.77798 144 108 77
0.938315 0.245282 6.23087 87 86 56
1.60488 0.164784 6.87383 66 50 20
1.25109 0.216881 7.28165 160 160 123
1.14127 0.246375 7.1495 126 117 86
1.20175 0.248244 7.32961 110 83 58
0.189737 0.33978 7.09937 164 150 114
1.43427 0.33134 6.99095 164 162 126
0.185959 0.494724 6.4212 158 155 103
1.44839 0.555833 6.65884 38 19 8
1.27991 0.605023 6.48471 56 53 38
0.434546 0.677252 6.44294 131 124 128
1.06854 0.718397 6.17548 15 6 4
0.877532 0.716587 5.75666 101 110 83
0.770549 0.735628 5.75452 49 17 6
1.47558 0.744402 6.18429 44 46 24
1.17086 0.761872 6.2707 146 107 88
0.979294 0.778514 6.29499 42 14 10
1.00653 0.806587 6.3094 174 144 141
1.24491 0.887592 6.44641 16 8 4
0.283682 0.981839 6.87342 88 60 40
1.23112 0.966186 6.52649 32 14 10
0.984585 1.11844 6.49133 113 87 81
1.17432 1.19384 6.63139 66 44 42
1.69959 1.12235 6.10616 82 48 25
1.6802 1.14308 6.1207 66 36 12
1.30093 1.32069 6.98614 84 48 41
0.95082 1.43203 6.75832 88 56 48
0.654048 1.49943 6.81977 62 46 32
0.933609 1.54664 6.81248 75 28 15
0.977289 1.55145 6.821 74 28 24
1.0315 1.57741 6.89846 90 54 50
0.246735 -0.830194 6.98201 102 108 73
-0.0292587 -0.324938 6.20794 62 66 38
1.66365 0.105153 6.95789 118 100 65
1.61767 0.110287 6.93713 52 34 8
1.39387 0.206462 7.02394 164 178 134
1.25477 0.219932 7.25752 167 174 132
0.255599 0.386323 7.02285 56 25 4
0.237059 0.411151 7.02299 107 86 66
0.298475 0.423124 6.85484 102 82 62
1.56358 0.521668 6.62847 113 115 83
0.373565 0.563624 6.40325 58 54 38
1.4557 0.549495 6.7259 44 26 15
0.227123 0.60613 5.74451 156 150 120
0.378685 0.632891 6.53304 44 28 20
1.00265 0.644326 6.28408 65 46 31
0.77242 0.731575 5.7289 50 18 8
1.24222 0.785657 6.27429 132 100 88
0.933619 0.838114 6.25981 85 38 15
0.985833 1.04001 6.42921 72 44 38
0.294684 1.17882 7.09029 124 103 78
1.21203 1.12063 6.62639 38 18 16
0.983786 1.12081 6.48294 102 77 72
1.63439 1.16338 6.21468 71 46 34
1.66882 1.13571 6.0735 65 38 16
0.963797 1.42905 6.75115 101 70 64
0.557681 1.54142 7.01193 142 110 90
0.90987 1.5757 6.85363 149 101 84
1.05337 1.58457 6.92432 138 108 105
-0.0834631 -0.398823 6.14572 116 110 88
-0.0307955 -0.328002 6.21629 60 64 37
-0.358508 0.144373 6.73877 108 86 38
1.25743 0.207446 7.36457 164 168 128
1.30142 0.243762 7.26776 164 175 130
1.21373 0.258646 7.25818 116 88 56
1.43076 0.340317 6.89212 166 167 128
0.273443 0.372381 7.2439 168 166 122
0.228024 0.442315 6.44997 139 94 70
0.207895 0.417116 6.92235 83 61 34
0.265414 0.450892 6.47577 167 154 106
0.403439 0.643379 6.51662 109 102 91
1.01064 0.805823 6.25726 175 146 144
0.879256 0.809355 5.71005 37 46 28
0.783966 0.844315 5.60865 93 58 40
0.985137 0.961863 6.38272 48 18 11
1.36051 1.07312 6.79425 64 38 34
1.66577 1.12378 6.10907 170 160 151
1.07066 1.4687 6.84227 110 72 73
0.904755 1.56769 6.81937 147 100 84
0.804157 -0.0468504 6.76 176 179 128
-0.347059 0.145385 6.71215 112 90 43
1.60658 0.119819 6.94893 52 38 13
1.25644 0.152331 7.28255 152 152 118
1.13656 0.231418 7.27669 132 122 96
0.178929 0.315902 6.61394 168 168 118
0.358974 0.390217 7.04525 24 15 4
0.19204 0.401151 7.22278 154 131 110
0.286064 0.453481 6.40052 158 146 96
0.235694 0.481711 6.22498 158 158 104
1.58741 0.511121 6.67642 130 146 105
0.401655 0.639598 6.5093 84 74 64
0.98608 0.697998 5.71714 14 7 4
1.0432 0.714977 6.11935 78 40 28
0.76577 0.725241 5.72955 58 22 11
0.773083 0.778966 5.65149 158 111 82
1.36553 0.908216 6.57679 75 49 44
0.321515 1.30953 7.22115 100 76 57
1.66288 1.12857 6.05087 73 48 32
0.972953 1.2803 6.56352 100 68 61
0.992309 1.54218 6.82356 66 24 22
0.985027 1.58757 6.89642 135 92 84
2.04589 -0.523475 6.32776 114 117 72
-0.196177 -0.486095 6.1433 56 54 26
1.97481 -0.488375 6.40087 144 142 100
0.305876 -0.170156 6.47134 110 111 66
1.51986 -0.136997 6.40909 76 84 59
1.46115 -0.0863431 6.4279 92 98 79
1.29711 0.068285 6.48384 101 104 92
0.46014 0.145715 6.42193 109 111 86
1.46163 0.522276 6.80123 144 120 107
0.380112 0.544005 6.68377 25 15 4
1.18201 0.802031 6.28316 132 89 74
0.303001 1.05215 6.8857 71 56 36
1.1346 1.4444 6.84448 120 90 88
2.04713 -0.524494 6.33438 126 128 82
1.97758 -0.494926 6.4089 173 174 126
-0.0152702 -0.422969 6.25245 86 84 46
1.52091 -0.138575 6.41157 74 83 58
1.46424 -0.0908531 6.42917 88 95 76
0.287379 0.833859 6.65245 72 46 24
1.18076 0.801087 6.28155 150 109 93
0.988721 1.04252 6.43477 114 88 82
-0.15942 -0.526009 6.19986 163 162 116
1.96118 -0.395752 6.12205 108 110 71
1.36587 -0.00189252 6.4816 68 76 59
0.196686 0.329517 6.48191 109 78 56
1.49869 0.578827 6.68261 130 86 64
0.174632 -0.27649 6.38158 126 129 90
0.239575 -0.224458 6.43003 119 120 76
1.17523 1.2105 6.64504 98 78 76
-0.133092 -0.421267 6.18038 55 58 36
0.391064 -0.552079 6.79523 96 103 68
-0.356729 0.147353 6.73826 96 72 26
0.387156 0.638477 6.50278 46 30 22
0.720737 0.993454 6.27841 27 6 4
0.951029 1.32432 6.63631 54 14 6
0.231907 -0.230234 6.44525 128 128 84
1.64982 0.159224 6.8481 123 90 58
0.935707 1.45648 6.75388 59 18 12
0.109252 -0.330065 6.32869 114 117 69
1.64881 0.168338 6.8079 108 73 42
1.65946 0.241213 6.74566 140 101 81
1.67731 1.14555 6.11652 82 54 31
1.50023 0.422995 6.68679 124 110 74
1.613 -0.331103 6.47351 109 111 74
1.03233 1.58642 6.90439 86 52 48
1.65262 0.158665 6.83244 114 80 51
1.29316 0.935392 6.54492 54 25 22
1.0194 1.57623 6.89986 103 66 64
1.03358 1.58058 6.91317 76 40 36
1.68913 -0.024881 6.82422 84 76 42
0.969262 1.41735 6.72284 126 96 94
1.03525 1.57759 6.90521 82 48 43
1.08289 1.59311 6.94264 89 54 48
0.943102 1.41961 6.72781 74 25 16
1.07969 1.59113 6.93507 88 54 48
1.6402 0.0821534 6.9358 118 116 78
0.959023 1.42458 6.75324 102 60 53
-0.0807758 -0.472861 6.228 107 104 58
1.21772 0.896545 6.43149 28 10 6
0.889623 0.777735 6.51142 65 29 19
1.06423 1.58466 6.97344 108 74 71
1.47849 0.153055 6.92027 147 158 118
0.53222 0.9878 7.84277 95 66 56
0.349742 1.32482 7.04105 138 116 94
1.31078 0.511105 5.26544 146 138 108
-0.347219 0.828409 7.34319 107 93 74
1.4497 0.952194 7.16046 47 22 14
0.704522 0.322017 6.17236 131 130 92
1.44215 0.90034 7.0018 113 90 82
1.42945 0.826565 6.65645 70 57 52
1.24665 1.06243 6.94231 39 17 13
1.24388 1.06069 6.94099 52 29 26
0.855464 0.816892 7.18006 94 71 51
-0.0694219 -0.45608 6.42383 104 103 62
1.4659 -0.086124 6.42262 88 92 74
1.07904 0.813627 7.45778 88 60 54
-0.217032 -0.540345 6.1147 70 71 50
1.55951 0.397303 6.47795 88 58 44
0.989635 1.04156 6.44017 123 99 96
1.05521 0.721398 6.1806 102 72 65
0.298141 0.823544 6.60386 101 74 54
0.307681 0.878736 6.58951 138 126 100
0.940616 0.838668 6.52011 86 45 28
-0.0888229 -0.477243 6.23829 106 104 63
1.0185 0.777015 6.23239 64 34 24
-0.0832281 -0.472939 6.22399 119 117 72
1.46706 0.528352 6.48416 69 41 23
1.48259 0.684079 6.99799 97 74 54
1.15576 1.34087 6.76233 122 98 94
1.13044 1.47195 6.87133 112 84 82
0.362773 0.587436 6.69836 74 62 42
-0.386766 0.140231 6.8171 117 100 50
0.359429 0.590503 6.70079 106 97 77
0.973937 1.28918 6.62216 106 82 75
0.277512 0.778318 6.69608 82 46 22
1.25371 0.747698 6.32734 36 26 11
1.62626 1.1324 6.14312 172 164 155
1.12933 1.45854 6.89475 101 72 68
1.48679 0.74278 6.26007 130 121 101
0.262342 0.86879 6.81354 138 121 94
1.09685 -1.22874 7.10819 116 122 66
-0.295956 -0.633964 6.10047 93 94 48
0.317993 -0.746538 6.90086 116 121 76
2.04407 -0.478098 6.34139 60 62 30
-0.0813445 -0.474596 6.23056 94 94 52
1.95426 -0.480854 6.40268 118 122 80
0.339629 -0.634187 6.81918 94 102 67
1.58173 -0.106784 5.34304 88 91 51
0.0435396 -0.379214 6.30587 76 79 38
0.0509831 -0.364514 6.2958 88 92 60
1.81222 0.0596118 5.03346 148 152 102
1.79242 0.0739842 5.03491 74 80 37
1.79037 0.0837169 4.99446 139 147 102
1.41181 -0.0448391 6.45724 84 92 72
0.493292 -0.021944 6.54357 106 112 71
0.514666 0.0808867 6.48823 84 88 58
0.572242 0.125991 6.5163 84 88 56
0.47553 0.161014 6.39289 57 60 28
1.6498 0.16677 6.84377 90 57 24
1.44624 0.169001 6.95408 137 148 110
1.28021 0.157843 7.18802 148 150 118
0.204261 0.325935 6.4991 154 142 104
1.6532 0.310661 6.71644 124 92 72
0.248341 0.41406 6.40445 144 132 92
1.574 0.521716 6.81719 104 106 75
1.53291 0.545865 6.69506 129 82 64
0.273879 0.599819 6.37913 86 45 23
1.00143 0.896031 6.32719 86 53 48
1.30138 0.932643 6.55117 56 26 22
0.294925 1.02093 6.87809 146 124 102
0.999019 0.956711 6.36489 113 90 85
0.996093 0.971529 6.37798 109 85 80
1.20425 1.04374 6.53848 117 92 90
0.978079 1.19922 6.57532 104 64 56
1.17661 1.21836 6.66039 110 86 83
1.29763 1.44988 7.22266 87 51 43
1.23381 1.4511 7.04764 84 52 48
0.979479 1.41497 6.73079 68 23 16
0.954983 1.41692 6.72387 70 25 16
1.13446 1.44387 6.84206 127 98 95
1.18905 1.53404 7.08547 85 54 51
0.948415 1.55667 6.86178 121 85 76
1.03835 1.57851 6.90196 78 40 32
0.937501 1.58999 6.8827 81 36 21
-0.444557 -0.73517 6.06887 90 84 39
-0.300398 -0.634775 6.10576 126 126 76
2.04261 -0.532083 6.37533 102 102 54
-0.0954572 -0.481081 6.22344 144 145 96
1.5819 -0.109024 5.34735 104 107 64
1.79928 0.0754885 5.03687 118 126 82
1.81204 0.0781526 5.02663 52 57 10
0.485336 -0.0260632 6.56725 106 111 69
-0.334651 0.156099 6.72839 109 89 38
0.507668 0.188882 6.46048 68 68 34
1.67701 0.12593 6.95757 160 153 118
1.27605 0.154349 7.2403 131 132 102
1.35342 0.235086 6.99312 120 134 88
0.183021 0.322439 6.54024 120 103 68
0.180616 0.309933 6.91066 158 144 98
0.308372 0.412052 6.96043 45 28 10
1.48176 0.472698 6.93487 40 14 0
1.47198 0.488319 6.91825 52 30 14
1.39996 0.649999 6.55497 60 34 18
0.312304 0.704806 6.4355 156 120 92
0.262893 0.7955 6.70685 128 104 77
1.29782 0.755626 6.26751 100 82 68
0.994914 0.970704 6.38506 109 90 84
0.854501 0.913286 5.55401 108 114 98
1.15914 1.01156 6.45785 83 52 48
1.19506 1.1182 6.58053 110 80 76
0.982726 1.19284 6.54495 96 53 46
1.3769 1.27544 7.23471 118 97 89
1.04632 1.25052 6.56822 110 66 61
0.978493 1.2865 6.61519 106 76 72
0.955487 1.4147 6.71624 87 38 26
1.0177 1.57962 6.91103 110 71 66
0.729271 1.22753 5.36571 93 84 66
-0.214712 -0.523372 6.1157 90 91 70
0.315428 -0.747105 6.90065 107 114 70
-0.142552 -0.4975 6.18639 60 61 40
2.04749 -0.490613 6.37212 58 59 32
-0.08875 -0.476299 6.2101 144 145 96
-0.0809629 -0.474135 6.22892 90 90 51
0.429374 -0.0695149 6.53597 106 109 68
1.40682 -0.039214 6.45284 76 84 62
1.7052 -0.0500462 6.98714 85 78 38
1.59443 0.173871 6.86275 66 55 22
1.60557 0.18266 6.84622 140 136 98
1.6146 0.203845 6.78324 158 152 114
1.28647 0.172814 7.21035 76 64 36
0.179883 0.298251 6.90773 120 94 56
0.16909 0.309059 6.94786 158 144 98
0.256325 0.416622 6.95771 129 111 94
0.23751 0.444438 6.41518 94 58 30
0.229916 0.589438 6.41648 152 130 108
1.45249 0.655247 6.56095 54 22 2
0.315382 0.782959 6.57301 76 40 15
0.936876 0.832855 6.24119 85 38 16
0.287907 0.982085 6.87794 56 20 4
1.21613 0.89424 6.42399 30 6 3
0.86811 0.850508 5.60981 102 110 90
0.995171 0.959532 6.37308 107 84 78
0.980621 1.1916 6.55022 94 51 44
1.04266 1.25441 6.59594 104 60 56
1.32034 1.30005 6.97865 66 27 16
0.975096 1.31296 6.63981 115 93 90
1.29814 1.44279 7.1803 86 48 40
0.951892 1.41775 6.72535 74 27 16
0.967027 1.41822 6.73021 114 80 72
0.754873 1.46357 6.78429 116 78 68
0.969176 1.56395 6.87249 68 26 19
0.25678 -0.817653 6.95372 92 100 62
2.04523 -0.488077 6.36711 58 60 32
-0.0820466 -0.472772 6.22821 94 94 58
1.9634 -0.482405 6.38796 69 69 26
1.79439 0.0709883 5.04618 72 78 36
1.40862 -0.0417252 6.44756 78 84 63
1.36316 0.00596214 6.45326 59 68 49
1.59386 0.171949 6.89741 86 78 43
1.24986 0.218636 7.28289 154 154 115
0.279036 0.385558 6.93631 55 22 5
0.384015 0.395374 6.83105 133 132 98
0.754788 0.440407 5.9863 64 66 44
0.742107 0.44887 6.02566 33 35 12
0.290446 0.599801 6.3238 95 58 36
0.336524 0.622497 6.19978 162 142 118
0.496115 0.788814 6.34228 84 38 16
1.24308 0.791617 6.32978 105 70 56
0.933492 0.833691 6.23721 74 28 7
0.26814 0.915032 6.84029 93 69 46
0.851582 0.91844 5.55573 112 116 98
1.32211 1.18661 6.82726 98 70 70
1.04295 1.25188 6.59298 104 60 56
1.29348 1.32913 7.02066 60 29 24
0.977343 1.29391 6.6218 114 88 86
0.940143 1.43194 6.77266 66 23 12
0.737823 1.50894 6.93846 90 56 52
0.945864 1.53933 6.78597 69 24 12
1.03376 1.58181 6.91604 78 40 34
-0.0384084 -1.06589 7.09838 78 82 30
2.01621 -0.475409 6.2942 67 64 30
-0.136432 -0.423416 6.18126 48 52 28
1.79566 0.0683634 5.05867 78 86 43
0.681277 0.113916 6.56754 162 163 122
-0.360876 0.144659 6.74172 96 74 26
1.5956 0.186181 6.84993 157 162 121
1.31188 0.251168 7.13357 150 166 123
0.201354 0.345026 7.05024 146 134 96
0.329704 0.415745 6.83142 47 25 9
1.46069 0.52004 6.78413 90 64 50
0.40233 0.659027 6.48781 95 84 76
0.290577 0.707123 6.50111 159 122 95
0.883262 0.714281 5.72506 110 119 94
0.30009 0.790569 6.61275 89 56 30
0.267185 0.823196 6.69711 94 68 46
0.293817 1.01247 6.87424 136 114 89
0.0458839 1.20699 5.32025 125 114 98
1.05569 1.59549 6.9875 134 98 92
1.07263 1.60019 6.96344 90 58 50
1.64271 0.0874662 6.92081 154 158 114
1.6144 0.111581 6.93614 50 34 8
1.30655 0.257654 7.04872 148 160 117
0.231307 0.41273 7.10711 124 116 91
1.49838 0.593705 6.67444 108 66 40
1.31385 0.778889 6.30074 152 132 131
0.934403 0.836543 6.25044 85 38 16
0.264459 1.02294 6.95129 146 128 102
1.17564 1.20322 6.64328 78 56 54
1.3637 1.34457 7.19461 72 40 30
0.979631 1.29227 6.5836 98 71 66
0.93926 1.44116 6.77738 64 19 11
-0.25563 -0.596414 6.13638 104 110 66
2.04967 -0.556677 6.44557 136 136 84
1.26304 0.218392 7.25557 154 164 122
0.158136 0.300351 6.94064 152 142 96
1.45285 0.579393 6.67093 108 68 44
0.349901 0.685134 6.52882 82 50 32
1.30383 0.779844 6.32706 142 117 112
1.01599 0.798743 6.23995 160 132 128
0.893035 0.794447 5.78144 166 125 98
0.972595 1.29285 6.60273 93 56 50
0.737864 1.48552 6.84131 87 48 40
0.083706 -0.345133 6.3882 91 92 49
1.54714 0.0806797 6.95226 150 164 120
0.734933 0.692578 5.92176 107 80 58
0.17951 -0.274503 6.37463 110 114 71
0.247666 -0.221262 6.41974 112 115 70
1.07746 1.5881 7.00582 112 78 72
1.40209 0.35052 6.99234 79 66 39
1.46697 0.69816 6.13382 116 94 80
1.30125 0.755807 6.2556 102 84 69
0.944895 1.55219 6.82552 76 30 18
0.64056 -0.18069 6.60263 104 112 75
0.308724 0.786688 6.5845 92 56 30
-0.44184 -0.723888 6.059 80 72 31
-0.191994 -0.488592 6.14809 53 53 28
0.988867 1.03989 6.43382 89 62 56
1.69046 1.13188 6.10991 93 58 37
2.03746 -0.510613 6.39043 56 57 23
1.41338 0.352414 6.93397 104 86 60
0.201201 0.411461 6.9688 55 32 12
-0.247865 -0.543506 6.13483 44 50 28
0.298714 0.339156 6.66737 108 94 58
1.64493 0.321045 6.72459 142 104 92
1.09939 1.56988 7.02768 66 30 27
1.01274 0.800817 6.24873 159 128 124
0.746849 1.46596 6.81264 100 52 42
-0.185759 -0.547861 6.16283 124 122 80
0.257946 0.590488 6.32644 140 129 102
0.112943 -0.330429 6.33631 112 111 64
1.45009 0.670168 6.51746 54 26 8
0.113488 -0.328566 6.33491 100 98 54
1.68797 -0.0539817 6.90845 73 70 28
0.325263 0.729672 6.39346 94 48 25
1.68219 -0.0383006 6.86909 72 65 21
1.69564 -0.0459205 6.85948 118 115 75
0.206277 0.992976 10.6634 116 88 71
1.68953 -0.0553145 6.89287 91 88 46
0.60638 0.959363 7.81637 140 109 91
-0.0891723 -0.473847 6.23346 90 90 60
-0.0782251 -0.472581 6.22008 105 105 65
1.44409 -0.977745 6.85771 96 104 60
1.33881 0.630654 6.39478 46 42 33
1.47406 0.734936 6.54796 116 94 84
1.37467 1.12644 7.18158 72 51 48
0.349346 1.49238 7.73113 112 98 87
-1.18782 0.199005 11.6717 134 128 104
1.12974 1.46999 6.87164 120 96 94
0.184943 0.294776 6.60891 154 148 99
0.508603 0.412582 6.06181 102 82 51
0.755955 0.426399 6.01004 40 41 10
1.44047 0.656873 6.56775 158 132 122
1.2354 0.890607 5.00083 78 48 44
1.18378 1.18261 6.63238 126 102 100
1.06846 1.25115 6.61319 120 76 68
0.968634 1.442 6.7465 108 80 79
-0.217117 -0.522501 6.1197 92 94 75
0.95671 -0.200237 6.25328 115 124 72
1.44785 0.649574 6.61198 66 35 16
1.1365 1.44692 6.84516 122 94 90
2.04731 -0.524935 6.33856 159 160 112
1.6632 0.257067 6.69878 122 84 56
1.23851 0.889675 6.48309 33 16 12
1.1788 1.20292 6.63831 104 84 82
0.0399393 1.2178 5.33708 100 90 70
1.43831 -0.993503 6.87327 93 101 52
1.40942 0.639638 6.56585 86 63 50
1.31619 1.19341 6.8474 66 42 40
1.30361 1.32118 6.98723 49 20 15
1.15251 1.33243 6.76996 104 76 74
0.311037 1.04573 6.86121 62 42 20
0.281863 0.292575 6.7676 100 94 63
1.44359 0.707331 6.45882 104 86 72
0.232186 0.924013 6.97171 110 88 64
0.281771 0.294278 6.76642 99 92 60
1.46356 0.483045 6.61573 41 18 4
1.48975 0.727792 6.51674 106 87 74
0.298429 0.833589 6.65931 124 96 73
1.43039 1.07214 7.00963 84 62 49
1.60834 0.198853 6.79709 146 146 106
1.4635 0.479737 6.66166 40 18 5
0.290358 0.755833 6.55472 150 122 94
0.293636 1.0144 6.87939 130 110 84
1.30031 1.4385 7.15532 94 63 52
0.844156 0.0298499 6.42455 149 158 106
1.46608 0.463201 6.83015 34 13 2
1.48752 0.739626 6.50636 103 88 73
0.746876 1.48742 6.84788 106 76 74
1.51695 0.408042 6.74819 148 158 112
1.51458 0.428476 6.6968 136 127 86
1.51187 0.672183 6.60431 106 72 55
1.44369 0.697767 6.55318 149 122 110
1.50798 0.752743 6.82433 127 116 102
0.268919 0.823524 6.68933 127 108 84
1.41877 1.06846 6.94677 85 49 38
0.339261 0.171409 7.65547 156 162 110
0.380206 0.592328 5.92579 134 133 101
0.283818 0.790773 6.67394 88 56 32
1.50636 0.747916 6.77555 126 113 100
1.42339 1.07298 6.97914 84 52 39
0.710972 1.24524 5.43561 114 106 88
1.6432 0.153589 6.82151 136 102 72
0.422931 0.436481 6.34477 140 126 99
1.51369 0.402543 6.71204 150 162 115
0.481907 0.563179 6.17801 38 30 9
0.381907 0.592691 5.91849 134 133 101
0.507052 0.621398 5.62136 148 137 104
1.41782 0.604466 6.53026 44 19 9
1.39471 0.659852 6.4743 60 40 22
1.68137 1.1197 6.06236 92 60 36
1.08548 -1.25591 7.1844 112 114 62
0.401524 -0.540518 6.77878 92 102 67
0.357889 -0.492878 6.73206 128 128 80
1.35482 0.0135394 6.46656 86 92 76
1.66806 0.219973 6.78283 134 100 80
0.185093 0.32617 6.50943 78 56 30
0.785315 0.416908 6.64694 32 24 4
0.772287 0.508826 5.92853 91 91 65
0.233643 0.539208 6.7899 112 96 84
0.897693 0.542026 5.87135 116 126 96
0.381334 0.693923 6.46575 62 29 12
0.388809 0.737794 6.44403 83 44 16
0.892046 0.713157 6.33835 35 16 9
0.889603 0.749085 5.84052 131 97 70
0.886814 0.793621 5.78678 149 111 86
0.790346 0.908569 6.31107 160 114 103
1.16128 1.01168 6.45392 116 83 77
1.3213 1.19521 6.85649 124 98 96
1.06897 1.24811 6.60174 118 71 65
1.28465 1.31363 6.9419 126 97 94
1.67198 1.09241 5.91815 157 140 131
0.981748 1.30104 6.64718 63 26 22
1.70043 1.1192 6.06346 122 99 79
0.731962 1.34313 6.70463 130 95 86
1.30101 1.32415 6.9339 46 16 10
0.974643 1.31867 6.64785 120 92 90
1.15896 1.31762 6.74258 114 80 80
1.28981 1.46265 7.25504 90 53 46
0.0241553 1.22111 5.35367 104 90 75
0.969514 1.41624 6.72288 125 95 92
0.762543 1.4788 6.82163 56 16 12
0.964741 1.58414 6.87263 80 36 24
0.26699 -0.793175 6.94722 121 126 82
0.63001 -0.181737 6.62966 103 110 76
0.551509 0.0287981 6.59963 92 99 46
1.67636 0.114526 6.91666 134 130 94
0.173262 0.301104 6.92378 142 120 80
0.20429 0.340271 7.04169 142 127 94
0.756153 0.447511 5.98624 35 30 8
0.777664 0.414436 6.63205 36 20 6
0.886664 0.466933 5.96854 98 108 78
0.898583 0.541275 5.86955 115 124 94
0.886193 0.615435 5.82528 87 102 72
0.392986 0.73239 6.4233 108 66 39
0.319963 0.741476 6.43134 114 71 44
0.894382 0.72576 6.32096 94 67 57
0.876739 0.771507 5.68959 94 102 80
0.884856 0.793613 5.79778 156 116 91
0.993204 0.828096 6.28047 73 36 22
0.887698 0.825146 5.6996 54 58 39
0.789781 0.90788 6.30967 148 102 90
0.999324 0.894024 6.32733 75 38 32
0.996306 0.958213 6.37165 100 74 70
0.756988 0.994423 6.3975 94 48 40
0.691532 1.07803 6.50079 120 88 79
0.99112 1.04203 6.4307 114 88 82
0.724513 1.08005 6.46693 45 14 8
1.35189 1.06687 6.79217 97 66 64
1.19357 1.11926 6.59058 108 78 73
0.726951 1.2231 6.61895 51 16 11
1.66825 1.11776 6.07734 160 144 134
0.985171 1.29886 6.63198 63 26 22
1.28524 1.3257 6.93563 110 84 82
0.727706 1.36461 6.73549 107 81 76
1.68619 1.13949 6.10414 96 66 48
0.960434 1.32834 6.65266 50 12 4
1.23954 1.4534 7.08294 121 92 90
0.756723 1.48315 6.84132 72 31 23
0.980798 1.4318 6.66623 74 38 34
1.20016 1.52687 7.02317 93 60 55
0.976064 1.57975 6.87947 93 46 33
0.998127 1.60133 6.94886 146 110 106
0.586726 -0.239458 6.66102 86 96 56
1.3586 0.0111259 6.46476 76 81 64
0.935154 0.239856 6.26748 96 94 58
0.212113 0.343076 7.02073 138 123 90
0.183466 0.410602 7.02249 51 28 10
0.266998 0.412669 6.93624 126 106 90
0.777847 0.412541 6.62513 36 19 4
0.880184 0.439519 6.07521 30 28 12
0.89007 0.469671 5.95441 106 117 86
0.761884 0.508194 5.96036 89 90 66
0.270004 0.600582 6.38016 97 56 36
0.359536 0.819943 6.50558 118 90 68
1.02298 0.822228 6.27596 82 46 32
0.882844 0.826178 5.70874 54 58 39
0.790445 0.907462 6.31058 134 88 76
0.699737 1.07753 6.48494 110 81 72
1.32402 1.18867 6.84149 102 76 76
1.28184 1.31852 6.93039 92 60 58
1.26647 1.32838 6.94708 85 52 49
0.72766 1.36192 6.73465 120 93 88
0.959091 1.32453 6.64325 54 12 6
1.24416 1.45201 7.05067 123 94 92
0.995738 1.39666 6.6366 102 66 62
0.73966 1.4952 6.8611 116 87 82
1.1952 1.53087 7.05171 87 55 49
-0.0469726 -1.07661 7.12579 96 99 42
0.154796 0.252782 6.61209 70 52 32
0.33902 0.73207 6.37325 100 56 28
0.90304 0.747893 5.80656 114 84 58
0.789518 0.908271 6.30568 148 102 90
1.17449 1.21472 6.6701 112 94 92
1.28068 1.31788 6.93974 89 59 56
1.30344 1.31589 6.93205 42 15 10
1.63925 1.13638 6.1426 158 146 139
0.737317 1.34371 6.6936 125 95 88
1.27183 1.33581 6.89825 53 24 20
1.24006 1.44964 7.01583 108 74 74
0.748056 1.48735 6.83053 112 85 80
1.17351 1.538 7.08295 114 84 82
0.911325 1.58348 6.87948 150 99 82
1.03726 1.5798 6.90553 84 46 38
-0.0557817 -1.0831 7.14692 86 90 32
1.57775 -0.19654 6.43663 78 83 60
0.306477 -0.167351 6.45734 94 100 57
1.45669 -0.0899556 6.45095 56 64 42
0.484104 -0.0248208 6.57226 114 118 74
0.69899 0.177875 6.57303 48 54 13
0.931485 0.238472 6.27078 82 81 43
0.161501 0.251485 6.59522 85 66 48
0.153931 0.299855 6.96149 161 150 103
0.376251 0.535986 6.44596 116 100 83
0.886121 0.539888 5.89444 89 98 64
0.906616 0.698725 6.30549 30 13 8
0.35668 0.817521 6.50849 102 68 48
0.840591 0.812249 5.93365 132 96 72
0.78848 0.905477 6.30407 122 74 62
0.745507 1.00208 6.34193 22 4 2
0.864246 1.05653 6.43825 42 8 4
0.726399 1.21691 6.56942 100 71 66
1.31793 1.30336 6.9893 56 24 16
1.26037 1.34372 6.92426 53 24 21
0.566838 1.51971 6.99625 76 35 19
0.748222 1.48532 6.8227 100 72 68
2.03324 -0.759123 7.24222 96 102 60
0.370809 -0.115663 6.49119 94 96 58
1.35455 0.00682276 6.4719 44 49 32
0.167998 0.258014 6.58678 67 47 28
0.168599 0.302107 6.91928 156 143 98
-0.127765 0.542918 7.7274 74 62 48
0.266407 0.623936 6.39383 163 141 117
0.910282 0.679668 6.25552 61 40 29
0.296272 0.735117 6.45958 94 50 22
0.880486 0.754763 5.86309 153 112 84
1.20252 1.03354 6.51492 72 46 44
1.69247 1.11984 6.0847 82 41 16
0.989942 1.55114 6.79637 78 31 22
0.264119 -0.184898 6.53776 78 82 48
0.36391 -0.117506 6.50095 104 107 67
1.64641 0.158523 6.85331 120 85 53
0.216101 0.400041 6.93612 66 38 20
0.28185 0.541046 6.6538 112 96 78
0.275385 0.584564 6.27272 101 97 57
0.49907 0.592611 6.24266 37 22 8
0.863333 1.05755 6.44154 46 10 4
1.22235 1.11489 6.60093 34 16 13
0.733682 1.34535 6.69547 115 77 70
0.921031 1.46053 6.76099 51 15 8
0.940088 -0.207482 6.29633 98 104 54
0.159462 0.251886 6.59185 86 66 47
0.301397 0.392596 6.93326 49 22 10
0.483062 0.659331 6.35349 33 24 16
0.288594 0.72623 6.44038 108 64 44
0.318191 0.764635 6.47886 161 138 110
0.947596 0.857988 6.26224 171 120 98
0.711793 1.35052 6.73994 89 38 28
0.719477 1.21415 5.38964 150 140 126
0.206996 -0.870389 6.97815 120 122 77
0.947575 1.09774 6.40471 106 58 48
1.17621 1.21883 6.65701 106 82 78
0.966129 1.32629 6.64013 54 12 4
1.26332 1.47203 7.1691 87 60 60
1.22751 1.45583 7.04699 68 36 32
0.401155 -0.543397 6.77286 94 102 68
1.45411 -0.0622225 5.41474 120 120 78
0.941793 0.242047 6.2384 100 99 62
0.890784 0.5355 5.8869 92 104 71
0.221489 0.588296 6.41405 136 117 88
0.00402084 0.745794 7.63296 18 12 10
0.948937 1.46229 6.76271 52 16 8
1.03748 1.61165 6.91693 134 99 90
0.898437 0.541608 5.86387 97 108 74
0.231309 0.586052 6.40085 152 134 106
0.765187 0.990559 6.37694 94 50 39
1.2033 1.03983 6.53399 110 87 85
1.30088 1.31563 6.93084 50 22 19
1.15748 1.01445 6.45985 93 58 53
1.27137 1.321 6.91515 76 44 42
1.22805 1.45888 7.04542 76 42 37
0.944199 1.59094 6.90979 92 50 40
2.0507 -0.48841 6.23305 157 164 110
0.992256 0.964582 6.3717 80 54 49
0.988398 1.03831 6.43229 104 78 72
0.278161 0.562127 6.47311 122 105 67
0.249297 0.586956 6.33251 115 108 75
0.840224 1.18681 5.44121 94 89 62
0.959411 1.42858 6.74131 95 58 50
1.73069 0.0430396 5.07673 100 109 70
0.302668 0.406209 6.71846 106 88 52
1.43386 -0.982421 6.85969 102 112 66
-3.01604 2.30987 16.381 88 72 52
-0.30232 1.31791 8.70959 128 111 96
1.25487 1.44275 7.04593 104 73 72
1.44613 -0.969356 6.83815 92 106 56
1.88666 -0.458006 6.41749 98 102 54
1.29044 1.43614 7.16092 94 60 54
1.10449 -1.26078 7.16876 83 92 38
1.4429 -0.969798 6.84906 74 90 44
1.0977 -1.25707 7.17419 101 110 57
1.88781 -0.457536 6.41631 120 126 76
0.887862 0.433763 6.0501 44 41 25
0.927434 0.84017 6.28226 70 25 8
1.28212 1.34954 7.1522 82 48 28
1.64131 0.0784576 6.94835 153 159 114
1.04675 1.60881 6.90592 116 80 71
0.365272 0.58247 5.91184 110 106 82
0.409722 0.55608 6.35706 102 97 73
0.898356 0.610607 5.98998 108 105 84
0.40405 0.877944 6.64969 52 16 6
1.20242 1.52197 7.03452 76 47 42
1.20375 1.52245 7.03818 95 66 61
0.238266 0.406708 6.43639 143 133 86
0.236534 0.401562 6.43489 130 119 76
0.227171 0.396071 6.44799 115 102 61
0.316793 0.851074 6.8346 62 26 15
1.55546 0.0812815 6.96478 151 161 116
0.95385 1.4623 6.75265 59 19 10
1.55545 0.0808831 6.99341 137 144 104
1.19326 1.51397 7.04509 106 78 74
0.851463 0.0272829 6.45105 123 126 84
0.540467 1.52498 7.04178 77 34 16
-0.285787 0.153086 6.65917 114 90 40
1.88217 -0.456411 6.40819 156 158 106
1.64469 0.0897375 6.92262 149 154 112
1.06942 1.59641 6.96 102 68 64
0.520559 -0.357379 6.70635 93 105 62
0.624063 -0.184603 6.6537 109 116 82
1.69011 -0.0497905 6.86021 104 102 56
0.736779 0.194178 6.47833 58 58 12
0.171665 0.259771 6.55022 74 54 32
0.117552 0.249163 6.8088 104 84 61
0.208809 0.344524 7.03057 162 150 112
0.628973 0.489625 6.08189 80 85 67
0.337665 0.775554 6.49155 160 138 110
0.987216 1.03794 6.44227 118 92 88
0.699674 1.08106 6.48625 120 92 82
0.497237 1.37331 6.94541 120 79 66
1.26919 1.33208 6.97397 52 24 21
0.540434 1.52373 7.03511 73 33 20
0.92124 1.58421 6.8898 140 90 71
1.96203 -0.489532 6.40827 94 96 50
0.598219 -0.231385 6.63294 90 100 61
0.6781 0.114322 6.58299 164 162 118
0.739177 0.19311 6.47052 56 58 12
0.754795 0.433674 6.00142 70 74 48
0.306171 0.712366 6.47241 160 120 89
0.897198 0.712302 6.32424 28 13 6
0.786135 0.707489 5.74244 86 76 71
0.884728 0.714246 5.72557 116 121 98
0.776333 0.734094 5.75242 116 94 58
0.862199 0.848722 5.62581 102 110 88
1.31697 1.19728 6.88744 104 84 82
0.996512 1.2773 6.58833 103 62 52
1.27733 1.31768 6.90744 72 44 40
0.976501 1.31283 6.63315 114 90 87
0.536152 1.52603 7.04019 88 52 36
1.13375 1.46361 6.84545 108 84 82
2.06046 -0.525158 6.31146 155 161 112
0.339289 -0.633576 6.81373 100 106 71
0.394572 -0.546853 6.79182 102 110 76
0.319439 0.704463 6.42764 138 98 68
1.04313 1.25294 6.59847 110 63 56
1.61203 1.12451 6.18726 100 86 76
1.15598 1.32162 6.75489 114 86 86
2.05669 -0.515346 6.28211 136 140 92
2.04509 -0.488032 6.3624 52 56 34
0.320771 -0.651874 6.85182 100 105 72
1.95167 -0.489402 6.42536 160 164 114
1.45958 -0.0903063 6.45243 79 88 68
0.482532 -0.028067 6.57795 110 116 71
0.662084 0.101185 6.62257 163 162 118
0.752735 0.43367 6.00695 86 89 64
0.821369 0.63091 5.80828 94 100 62
1.2025 1.03632 6.55044 116 100 98
0.711908 1.21854 6.60525 94 62 56
2.04194 -0.547044 6.41708 126 128 78
0.631478 -0.182961 6.61665 102 109 75
0.757584 0.435865 5.99216 94 98 73
0.766756 0.70666 5.77852 60 47 43
0.712609 1.08701 6.51007 30 7 1
1.27379 1.09708 6.72752 38 14 7
1.20009 1.12966 6.64195 33 13 12
0.704105 1.37225 6.79787 106 76 71
0.440135 -0.0644484 6.503 128 134 91
0.469172 -0.0328993 6.59679 119 124 82
0.248975 0.339197 6.38345 90 72 42
0.505512 0.390968 6.22377 158 144 99
1.61201 1.13628 6.20371 98 74 58
0.403492 -0.109341 6.279 106 112 72
0.677242 0.101527 6.52945 164 165 118
0.556731 0.427015 6.2039 56 26 12
0.940936 0.722983 6.20179 38 22 15
0.850385 -0.0208886 6.45745 158 165 116
0.126301 0.28834 6.99523 127 103 65
0.989572 0.959634 6.38843 96 74 68
0.842165 1.1841 5.44235 118 108 88
1.11163 -0.587146 6.73984 146 154 106
0.672785 0.11225 6.61272 144 144 100
1.06888 -0.220968 6.75074 136 140 102
0.269957 0.919477 6.84298 130 112 88
0.735418 1.20145 6.51969 110 82 75
1.29501 1.3311 6.98695 56 24 19
1.03433 -0.271867 6.99057 130 132 94
1.69535 1.13108 6.16355 86 56 32
0.936691 -0.207861 6.30415 102 110 56
1.17076 0.00231727 6.57978 106 112 80
1.17265 0.0417693 6.47626 102 109 81
0.493403 0.565175 5.95765 114 94 67
0.994295 0.807486 6.33504 154 126 121
1.36445 1.34423 7.22436 74 40 28
1.09877 -0.628461 6.84024 128 135 90
0.933616 -0.213958 6.32335 102 110 56
0.921649 -0.186296 6.47365 138 146 96
1.0777 -0.215028 6.68011 121 128 86
0.914059 0.227519 6.34433 90 86 46
0.173797 0.307498 6.60737 140 136 92
0.441538 0.660105 6.38174 47 34 27
1.60958 1.13653 6.14625 98 74 58
1.18398 -0.0170354 6.55665 120 125 100
1.18652 0.0502419 6.38367 102 109 78
0.780703 0.706256 6.43259 18 10 7
0.266785 -0.805465 6.93235 104 108 64
0.531493 -0.491967 6.78708 110 121 72
0.392409 -0.411123 6.73181 110 114 70
0.571464 -0.424357 6.77648 108 116 67
1.46017 -0.0892985 6.4451 76 82 62
0.891206 0.449565 6.02792 22 30 12
0.798106 0.493425 6.40752 66 72 60
0.268944 0.587867 6.33188 132 113 80
0.91992 0.597719 6.03704 68 68 55
0.906414 0.614459 5.78335 92 104 76
0.868627 0.747595 5.88691 129 96 68
0.886486 0.770698 5.665 108 114 92
1.01923 0.778805 6.2731 46 18 6
0.923475 0.833818 6.22735 91 44 18
1.02939 0.820933 6.26273 64 27 10
0.68833 0.920075 6.35494 121 88 78
0.690081 0.924599 6.38046 45 11 4
0.680013 0.927135 6.37639 114 84 77
1.39376 0.77779 4.73277 89 72 56
0.774302 0.990013 6.35991 114 66 60
0.60361 1.02981 6.47458 132 92 74
0.72398 1.22154 6.61447 47 13 10
1.26644 1.32019 6.96549 55 25 24
0.986908 1.32781 6.64986 58 16 8
1.26137 1.43972 7.02474 83 54 52
1.26697 1.46771 7.16135 96 73 69
1.22427 1.46303 7.061 60 27 27
1.20191 1.52811 7.01019 72 44 39
0.948083 1.55689 6.8328 82 36 24
0.978214 1.58166 6.88112 118 71 60
1.9533 -0.45897 6.35492 154 156 110
1.89609 -0.470714 6.44245 152 154 106
1.88489 -0.462828 6.43915 102 104 56
1.51536 -0.101784 6.44459 55 64 46
0.798958 0.493695 6.40427 53 60 48
0.23267 0.557382 6.40126 104 80 60
0.305699 0.553464 6.34135 114 82 67
0.267755 0.6 6.38422 98 56 35
0.309488 0.63146 6.41563 90 56 32
1.01851 0.725717 6.14804 26 8 2
0.787402 0.843676 5.62749 128 118 90
0.708622 1.00883 6.43497 36 8 4
0.598345 1.0304 6.48043 106 66 48
1.20217 1.11584 6.60921 66 35 31
1.17546 1.13301 6.59935 49 16 10
1.27842 1.47198 7.30306 106 74 66
0.970562 1.41659 6.71961 115 79 74
1.2541 1.44199 7.06496 79 48 44
1.27637 1.46213 7.12852 106 82 78
0.958397 1.58951 6.88231 80 40 32
2.04649 -0.528589 6.36603 80 87 44
1.96457 -0.485218 6.39517 112 114 66
0.958357 -0.203628 6.25657 114 119 70
1.46213 -0.0868818 6.4338 73 79 58
0.890977 0.446815 6.03048 26 32 14
0.792869 0.493039 6.41106 60 66 54
0.288782 0.554485 6.3749 120 88 72
0.353698 0.543298 6.32773 115 106 64
0.196985 0.598588 5.76788 124 120 78
0.223724 0.72427 5.49931 80 78 58
1.04565 0.773564 6.1606 66 37 28
0.887526 0.785464 5.64436 102 104 80
0.873137 0.845681 5.59857 100 103 81
0.685191 0.923683 6.36395 118 85 76
0.715149 1.00693 6.4175 40 12 6
1.20319 1.12776 6.61039 32 15 14
0.728964 1.22572 6.62083 50 14 10
0.730759 1.34673 6.71095 130 87 78
0.977107 1.29462 6.62454 119 96 91
1.30515 1.32062 6.92297 41 15 12
1.26582 1.4513 7.20943 96 60 54
1.26252 1.43554 7.04148 84 52 48
0.770233 1.47889 6.81381 61 18 10
0.751088 1.48968 6.83008 113 88 86
1.26762 1.46936 7.14029 87 62 60
0.95467 1.58777 6.89145 92 51 44
0.884089 1.60697 6.89075 107 60 42
1.06814 1.6003 6.96713 95 60 54
0.394866 -0.546145 6.78298 93 100 67
0.954269 -0.203636 6.26584 104 110 60
0.879667 0.442955 6.05539 25 30 14
0.901166 0.478791 5.92362 98 106 76
0.312715 0.552098 6.26097 118 91 69
0.282146 0.620814 6.37321 155 126 102
0.897227 0.621741 5.7933 107 116 90
0.683153 0.922405 6.36391 112 79 70
0.66253 1.01943 6.45779 23 6 0
1.18214 1.12944 6.57693 53 18 12
0.975802 1.30751 6.63119 106 82 76
1.29255 1.32638 6.96703 49 22 20
0.873424 1.18114 5.37358 92 84 58
1.24236 1.48779 7.1918 90 64 62
0.92505 1.46876 6.79208 50 17 12
0.893985 0.44228 6.01899 42 48 28
0.263263 0.56161 6.34019 120 99 68
0.278828 0.62118 6.37285 160 133 110
0.306945 0.624142 6.40242 86 57 40
1.0272 0.733566 6.14498 100 65 56
1.01572 0.777639 6.24053 73 44 35
0.94247 0.841383 6.24689 70 22 6
0.872689 0.847655 5.59353 93 95 73
0.690319 1.0221 6.49064 23 8 4
0.954474 1.13448 6.50941 55 18 10
0.272567 0.434784 6.41166 120 109 56
0.865779 0.437686 6.63617 126 121 112
0.270565 0.55993 6.31764 91 78 50
0.214299 0.586838 6.39942 118 112 72
0.897698 0.61903 5.79036 83 94 64
0.0739248 1.19204 5.29666 144 132 114
1.19471 1.53105 7.05205 81 52 48
1.17358 1.53334 7.00248 122 98 96
1.09829 1.57904 7.02752 77 40 34
0.85131 0.434377 6.65185 118 114 101
0.270698 0.565326 6.2982 107 100 64
0.881093 1.05337 6.4041 36 4 2
0.984677 1.11923 6.48269 94 63 58
0.875443 0.433465 6.61581 124 120 112
0.723225 1.09533 6.50897 26 8 4
0.863622 1.17466 5.40437 113 104 82
0.302546 0.455842 6.27536 136 98 74
0.474608 0.553748 5.88666 64 66 50
0.28253 0.555614 6.37644 128 92 72
0.82426 0.722304 6.55794 76 50 42
1.29076 1.45669 7.25603 84 54 44
0.400976 -0.541841 6.77331 92 102 67
0.406991 -0.406037 6.70501 135 136 88
0.968176 1.32402 6.62393 54 12 4
0.235489 0.461144 6.37411 147 101 78
0.245597 0.557549 6.37611 104 82 61
1.29419 0.636403 5.23996 69 60 40
0.913827 0.688319 6.2754 38 22 15
0.940334 1.57844 6.87214 105 65 54
0.966669 0.656425 6.42616 69 48 36
0.424481 1.36305 5.88205 110 100 82
-0.0949013 -1.11159 7.23062 84 88 38
0.557948 1.36567 6.82634 100 66 52
1.25735 1.33604 7.04912 80 46 44
0.720267 1.09 6.49628 34 9 4
1.16574 1.53693 7.04031 101 72 70
0.666848 -0.383299 7.05184 104 111 72
1.03655 1.58056 6.91206 77 34 24
0.707517 1.20183 6.612 87 46 35
1.62954 0.954818 5.83504 130 114 104
0.725166 0.64202 6.01324 108 86 56
1.07892 1.58565 6.99078 108 69 63
1.16102 1.55124 7.23743 94 68 66
0.6901 0.849519 6.3096 69 35 26
0.987437 1.04275 6.44109 108 84 78
0.947613 1.4578 6.74822 53 17 12
0.95439 1.42706 6.73743 88 36 24
1.44445 -0.97808 6.86765 88 96 45
2.0415 -0.46621 6.32394 56 61 32
1.9633 -0.481592 6.39236 72 74 34
1.58411 -0.0618682 5.32558 120 124 83
1.00964 0.652517 6.27975 40 22 10
1.15397 1.3422 6.75996 121 92 90
0.872537 1.61511 6.91636 92 45 26
0.666765 1.02602 6.47116 36 11 6
0.701372 1.02499 6.45641 26 6 4
0.356591 1.25331 7.02202 144 115 95
0.720883 1.23807 6.61539 110 82 78
1.3155 1.196 6.88171 120 100 99
0.727943 1.3616 6.73333 120 98 93
0.748837 1.47126 6.81271 126 85 78
0.947379 1.45845 6.76722 57 18 14
0.631324 -0.183752 6.62862 108 114 80
0.736081 0.860055 6.22371 78 54 46
0.666089 1.02003 6.45727 24 6 4
0.711484 1.24109 6.63912 119 96 93
1.27905 1.3308 6.96354 117 91 90
0.962159 1.44044 6.75495 108 75 70
0.941668 1.60871 7.00253 103 57 47
2.06258 -0.516168 6.28702 157 160 114
1.59109 -0.053886 5.30835 138 142 99
0.634978 -0.183163 6.618 106 112 76
1.2895 1.08962 6.67264 46 17 13
1.02146 0.772121 6.30176 40 14 8
1.00577 0.685275 6.32017 44 28 22
1.23699 1.44553 6.95469 82 42 42
0.599993 0.393656 6.20917 142 127 87
0.920981 0.400309 6.68307 102 104 104
0.953665 0.834669 6.20897 72 26 10
0.598951 1.01628 6.50781 36 12 6
0.705786 1.23541 6.62982 72 40 36
1.91454 0.727646 4.02245 105 75 47
2.05967 -0.527118 6.31804 150 151 107
1.16988 -0.607014 6.68009 134 141 98
2.00759 -0.465072 6.29998 146 142 104
1.99046 -0.466107 6.32405 157 156 110
0.328498 -0.510074 6.80355 108 111 66
1.59174 0.00970481 5.03221 130 133 86
1.70237 -0.293066 6.38636 81 86 60
0.767646 -0.0598312 6.71979 150 152 104
0.79214 0.582608 5.83293 18 15 4
0.698388 0.591462 6.02005 67 60 46
0.694045 0.845682 6.24228 90 48 26
0.68365 0.876237 6.34332 36 10 4
0.704228 1.02557 6.44532 34 10 6
0.404421 1.16788 6.7977 110 86 64
0.85794 0.976653 5.45196 103 111 92
0.515106 1.19765 6.66136 119 94 74
0.731658 1.20737 6.55537 135 102 93
0.592372 1.52186 6.97536 96 50 34
1.1034 -1.25846 7.16062 100 100 44
2.09714 -0.527148 6.2947 61 69 35
0.99812 -0.787743 7.11021 131 136 88
1.15783 -0.624416 6.72337 120 130 88
1.00127 -0.719146 7.05845 122 128 79
0.867905 -0.0908076 6.56619 146 148 104
0.753197 -0.0713458 6.75545 159 164 112
0.284248 0.603071 6.55331 127 96 62
0.788422 0.625111 6.09521 16 19 4
0.311121 0.736622 6.44253 103 56 26
0.891995 0.715362 5.71043 108 112 86
0.894919 0.769879 5.64809 100 109 87
0.66168 0.851472 6.31942 88 46 26
0.696199 0.847046 6.29723 79 36 22
0.833943 0.901687 5.67703 125 129 110
0.85935 0.91015 5.54296 102 108 88
0.380478 1.17473 6.85444 88 59 38
0.840839 0.979826 5.48508 100 107 87
0.723226 1.21434 6.5822 126 92 86
0.810055 1.05592 5.44526 81 88 66
1.79531 -0.42332 6.45369 124 128 78
0.891623 -0.07941 6.49496 138 140 97
0.75192 -0.0750477 6.75946 158 164 112
0.275708 0.547866 6.70746 180 164 147
0.292811 0.630055 6.44109 90 56 36
0.308536 0.737566 6.45059 103 56 25
0.390186 0.822953 6.47891 146 127 100
0.646289 0.854604 6.35394 88 46 26
0.691829 0.856541 6.2787 114 88 82
0.859706 0.910732 5.54323 112 117 98
0.837395 0.982689 5.48758 96 104 82
0.827852 0.992297 5.49573 96 102 81
0.475418 1.20874 6.74879 127 102 82
0.486912 0.555354 6.06634 133 126 81
0.320654 0.607224 6.59208 53 32 14
0.457509 0.677802 6.40489 104 96 96
0.50422 0.693347 6.30285 42 28 20
0.643244 0.859991 6.34993 60 20 7
0.715846 0.848021 6.26988 76 29 14
0.676176 0.869642 6.37002 35 8 3
0.608479 0.998072 6.47641 42 8 2
0.857849 0.979049 5.44566 95 100 80
0.807448 1.2183 5.46869 126 114 98
2.0371 -0.606792 6.6021 138 143 94
0.452763 0.659758 6.3951 38 22 14
0.426791 0.68544 6.348 72 40 22
1.49403 0.719336 6.45558 159 134 124
0.668865 0.854569 6.32492 106 74 60
0.584716 1.00771 6.54045 36 6 2
0.874853 0.90791 5.50514 91 94 74
0.688112 1.07721 6.51064 113 84 74
0.428132 1.15853 6.7377 132 112 88
0.841517 1.19993 5.40655 132 120 105
0.715098 0.868212 6.28648 33 10 4
0.673101 0.922707 6.37788 80 45 37
0.883051 1.17509 5.35709 88 79 49
0.955505 -0.191916 6.24983 111 118 68
0.933652 0.426365 6.64695 120 120 120
0.514867 0.727042 6.28183 131 92 58
0.486882 1.06243 6.53907 126 122 98
1.11167 -1.24985 7.14199 92 97 46
0.321197 -0.644655 6.84077 91 98 66
1.99831 -0.480057 6.34938 126 128 90
1.77525 -0.31653 6.36012 83 88 60
1.63503 -0.243573 6.40602 85 91 66
1.18047 0.159044 6.06656 90 98 88
0.216468 0.39838 6.46245 148 134 86
0.760015 0.4401 5.99339 112 105 60
0.773859 0.508132 5.92179 92 95 69
0.376194 0.580933 5.70739 74 77 50
0.986857 0.662429 6.21757 46 34 31
0.89075 0.699714 5.72844 106 108 76
0.796321 0.76083 5.68081 114 106 78
0.708234 0.768709 6.281 47 24 13
1.01536 0.725498 6.15751 50 20 11
0.837456 0.853198 5.6477 100 102 80
0.809688 0.904116 6.27732 164 114 102
0.842479 0.883199 5.656 143 146 128
0.706874 1.07917 6.47623 114 84 76
1.19039 1.12582 6.599 122 96 92
1.21609 1.12645 6.56875 42 12 10
1.18021 1.18635 6.64181 124 106 100
1.07455 1.21397 6.58407 93 49 42
0.726276 1.36769 6.74171 120 90 84
0.733011 1.22411 5.35442 102 90 76
1.30724 1.43185 7.21382 116 86 78
1.26228 1.43982 7.02116 80 54 54
0.96185 1.54565 6.82705 127 88 78
1.10347 1.57226 6.98775 100 64 57
-0.0836999 -1.1058 7.20094 104 108 56
1.99396 -0.48013 6.34652 144 148 100
0.438272 -0.5253 6.71677 92 102 66
1.77382 -0.319161 6.364 72 74 50
1.32395 0.028891 5.67475 94 92 86
1.28294 0.0672331 5.82433 92 95 90
0.51011 0.510794 5.93732 72 74 47
0.615605 0.48862 6.10702 64 68 48
0.854384 0.496877 6.55649 56 61 46
0.249289 0.623163 6.41989 166 136 114
1.00178 0.651443 6.3002 40 24 14
0.888235 0.700872 5.73317 107 109 78
0.743967 0.75238 6.20949 77 52 40
0.480971 0.781497 7.17902 77 54 46
0.672011 0.848285 6.29506 82 40 22
0.814932 1.05534 5.4346 82 86 60
1.19171 1.12091 6.59315 111 85 80
1.19748 1.13252 6.61297 40 16 15
0.704052 1.24053 6.64404 118 96 90
1.05658 1.24812 6.5642 106 56 46
0.976756 1.29117 6.62366 118 86 76
1.17536 1.33092 6.70661 104 80 76
0.722603 1.49171 6.86958 112 74 66
0.982235 1.41671 6.72962 67 30 26
0.941975 1.55646 6.83558 92 40 29
1.10685 1.56903 6.96451 74 40 34
1.0927 1.58718 6.93984 83 46 38
1.42032 -1.00695 6.93409 76 94 42
1.99711 -0.48987 6.37124 157 161 113
0.394923 -0.546645 6.78327 91 101 66
0.512071 -0.50258 6.81534 90 98 54
1.78137 -0.315872 6.34459 72 76 51
1.26524 0.061641 5.85478 88 92 86
1.02792 0.312068 6.57602 68 76 64
0.255342 0.444614 6.44189 143 136 80
0.267891 0.621008 6.39171 166 140 116
0.896306 0.633558 5.83245 25 28 12
0.868755 0.718296 5.74414 96 99 68
1.03284 0.682918 6.18952 51 26 14
0.667656 0.763793 6.29884 38 23 8
0.736089 0.756315 6.22413 74 48 37
0.687991 0.769526 6.32228 43 17 7
0.874162 0.785848 5.66368 88 89 62
1.02716 0.776511 6.26933 73 44 32
0.692991 0.85301 6.31795 72 30 14
0.672052 0.862345 6.32645 117 91 80
0.851202 0.850751 5.62365 100 100 78
0.849607 0.887464 5.64259 126 128 108
0.783225 0.917434 5.56301 136 126 106
0.994133 1.03722 6.42529 120 92 85
1.20151 1.11883 6.57838 84 58 56
0.971865 1.32791 6.6798 49 13 4
1.15727 1.33617 6.74509 94 70 68
0.957972 1.45076 6.73208 54 20 14
-0.0511131 -1.08855 7.16494 82 88 40
0.332169 -0.638969 6.8153 80 86 54
2.02871 -0.490356 6.35159 38 42 17
0.897836 0.534057 5.93292 12 14 4
0.858869 0.659682 5.86332 57 66 40
0.906187 0.692591 6.29665 20 6 3
1.01768 0.674287 6.30184 14 4 0
1.03247 0.775815 6.24694 58 28 16
0.718492 0.849674 6.27931 80 36 22
0.8355 0.888549 5.66005 120 120 100
0.66454 1.01892 6.44876 24 8 2
0.719771 1.23389 6.61556 111 88 84
1.17935 1.21277 6.65304 119 102 98
0.953575 1.32777 6.64228 60 15 6
1.19217 1.52438 6.972 124 100 98
-0.0778622 -1.09628 7.19034 100 102 52
0.175958 0.601454 6.6632 156 143 114
0.892938 0.617784 5.80557 92 98 68
1.01532 0.652614 6.3228 94 74 62
0.828729 0.892451 5.66121 75 72 50
0.983602 0.964239 6.38948 66 34 31
0.975112 1.04371 6.4526 77 48 41
0.722507 1.36005 6.73373 117 85 79
0.718993 1.21932 5.37349 142 133 116
0.958977 1.58234 6.8782 100 64 58
0.182704 0.460309 6.43584 146 103 74
0.794995 0.409616 6.58588 27 14 4
0.5387 0.55744 6.02602 102 66 45
0.696387 1.00026 6.37765 30 6 1
