ply
format ascii 1.0
element vertex 1323
property float x
property float y
property float z
property uchar red
property uchar green
property uchar blue
end_header
-3.05257 0.144676 5.14618 181 69 72
-3.11098 0.184648 5.07069 184 155 149
-3.0888 0.239894 5.1325 172 130 124
-2.49534 0.397671 5.57384 134 42 26
-0.691982 0.495545 5.81795 144 104 90
-1.5836 0.842708 6.70385 100 65 53
-0.908238 0.82746 5.8095 95 74 61
-2.4524 0.86782 6.61551 180 130 110
-2.82577 0.672326 5.42233 26 18 34
-0.780822 0.820482 5.4931 111 85 81
-0.920152 0.863488 5.75271 114 95 88
-1.98388 0.971545 6.68023 52 16 10
-2.48776 0.940404 6.6151 178 128 99
-0.825421 0.92388 5.87294 150 127 117
-0.494075 0.877528 5.43433 142 122 118
-0.575642 0.902277 5.42231 109 94 88
-0.710586 0.927283 5.38581 142 42 40
-2.88154 0.835123 5.46517 32 19 30
-3.00848 0.901922 5.51784 45 31 46
-0.53841 1.21481 5.73964 145 117 114
-0.391709 1.19984 5.62263 129 87 85
-2.9827 0.975826 5.50319 144 80 49
-2.90157 1.07047 5.7856 80 12 11
0.908567 -1.54633 6.02342 102 81 39
1.14373 -1.45015 5.90377 129 113 75
0.899675 -1.28769 6.10036 160 149 104
0.747177 -1.18518 5.86266 152 116 78
0.877836 -1.08741 5.42111 102 12 8
-0.99862 -1.0725 6.33739 44 28 16
-1.03107 -0.896501 6.24564 116 78 61
-1.34269 -0.8993 6.39658 60 12 4
0.859184 -0.739338 5.21331 91 32 30
0.877107 -0.760689 5.49336 90 54 30
-2.52145 -0.717295 6.14361 166 116 86
-0.855345 -0.733608 6.47416 38 14 9
-2.54351 -0.612836 6.09757 170 120 100
1.19171 -0.68934 6.08488 118 65 33
-0.959045 -0.65607 6.38516 120 72 58
-2.35159 -0.561098 6.0776 184 120 102
1.13537 -0.578855 5.74555 134 128 82
1.30954 -0.545227 5.85153 82 70 50
-0.908465 -0.534445 6.43119 127 82 64
1.37823 -0.431344 5.84378 116 90 78
1.4067 -0.402277 6.0411 90 70 52
-2.99752 -0.195278 5.10027 104 100 93
-3.09747 -0.131524 5.25784 104 100 100
-1.77853 0.00825916 5.91414 75 28 14
-2.60507 0.00712524 6.47999 158 142 122
0.840682 0.318423 6.38318 142 118 103
-3.08656 0.235752 5.11693 186 144 140
-0.156807 0.487933 5.68513 124 54 39
-2.49128 0.413525 5.69767 130 30 18
-2.81847 0.588341 5.39157 28 22 34
-2.73471 0.872462 7.22724 150 100 88
-0.745521 0.815452 5.81315 110 23 16
-0.824251 0.771356 5.44431 111 65 56
-0.820503 0.876313 6.05046 91 72 56
-0.263904 0.868785 5.43211 140 90 83
-0.625703 0.887285 5.44878 152 132 122
-3.15588 0.691167 5.22016 136 39 25
-2.86915 0.812856 5.36547 28 17 31
-2.99476 0.875405 5.39674 31 20 35
-2.9821 0.933221 5.45497 72 2 2
-0.630812 1.27545 5.99178 119 88 82
-2.74363 1.06553 5.80599 126 44 24
-2.72295 1.09889 5.83741 146 103 94
0.940762 -1.37367 6.19847 164 155 101
0.8772 -1.1682 6.12032 163 150 104
-1.09735 -1.04746 6.30301 78 45 28
-1.0164 -0.99739 6.38152 90 56 40
0.708932 -0.965341 5.8428 134 127 81
-0.966619 -0.944097 6.41578 68 35 22
-2.41378 -0.731836 6.06285 34 14 8
-0.800603 -0.789861 6.49576 75 64 34
-0.942639 -0.709231 6.25509 36 18 12
-1.22959 -0.692938 6.72625 66 22 4
0.984294 -0.65869 6.0382 118 84 42
1.34924 -0.39951 5.97224 94 74 56
-2.36266 -0.354447 6.33433 101 44 26
-2.50959 -0.142541 6.40074 102 58 46
-0.993924 -0.126001 6.50176 66 30 19
-0.795717 -0.134757 6.7313 90 50 34
-2.79166 0.260229 5.40123 136 86 63
-2.7851 0.311208 5.47739 74 8 4
-2.75614 0.315465 5.47956 104 48 18
0.910184 0.487232 6.19722 132 62 40
0.823719 0.58993 6.37474 64 40 22
-0.452706 0.559011 6.37666 147 111 95
-2.85066 0.571785 5.31598 24 16 28
-1.42675 0.829594 6.80157 178 127 99
-1.55067 0.879482 6.91292 104 70 60
-1.07663 0.915912 6.9893 169 116 90
-2.91157 0.596825 5.31628 31 22 36
-2.89359 0.604637 5.39718 62 54 64
-1.59511 0.914518 6.89916 108 74 64
-0.744873 0.841053 5.92699 154 133 118
-1.68688 0.90402 6.47851 74 36 26
-2.448 0.948159 6.60612 200 148 116
-0.567209 0.906563 5.43414 70 56 51
-0.350495 0.900203 5.31223 100 84 78
-0.403888 0.961052 5.41411 136 60 56
-2.87109 0.830031 5.47473 26 16 31
-2.73041 0.949816 5.69484 156 122 98
-0.651296 1.13257 5.48898 144 69 66
0.776493 -0.910991 5.46747 112 97 82
-1.21813 -0.930968 6.34056 177 116 90
-2.29167 -0.815585 6.17323 86 52 30
-2.33502 -0.754369 6.13035 74 35 20
-2.59281 -0.724262 6.13468 124 82 59
-2.31973 -0.408632 6.32713 206 149 116
-1.6056 -0.397276 7.05182 108 66 44
1.02756 -0.166964 6.06771 48 14 4
-0.82024 -0.174636 6.50124 93 72 50
-1.82933 -0.108628 5.91419 223 168 130
-2.94364 -0.0551598 5.14189 105 96 102
-2.9432 -0.0283594 5.16618 148 132 116
-2.82144 0.164828 5.15076 142 81 79
-0.416948 0.449076 5.51553 122 102 79
-0.417545 0.549583 5.51812 126 76 63
1.65169 0.707036 5.68297 137 105 92
-0.507505 0.777896 5.29342 88 78 66
-2.84438 0.667237 5.4198 28 25 37
-0.261284 0.92891 5.39574 74 62 58
-0.264629 0.915136 5.33647 153 138 135
-0.28094 0.951199 5.39813 53 38 30
-2.76977 0.909064 5.60748 124 38 15
0.92583 -1.54746 5.99644 101 84 40
1.03097 -0.965759 5.12874 156 114 86
-1.35713 -0.932319 6.50113 134 88 69
-2.18488 -0.808542 6.33495 94 57 36
-2.59805 -0.692037 6.1315 122 78 52
-1.26396 -0.658306 6.61855 90 44 20
-2.94321 -0.0312103 5.16969 156 142 126
-3.13496 0.180548 5.15817 192 140 128
-2.84225 0.252174 5.17722 160 129 126
-3.10746 0.260738 5.16433 164 96 90
-0.447788 0.449259 5.55162 138 119 100
-3.23806 0.422443 5.38877 153 102 84
-2.88079 0.620023 5.38111 58 52 62
-2.01254 0.931497 6.46275 58 23 12
-0.454315 0.907908 5.4763 152 112 110
-0.538011 0.912587 5.4866 100 84 78
-0.498509 0.932114 5.48381 100 88 88
-2.88438 0.844299 5.47166 30 20 31
-2.97929 0.856439 5.40647 49 29 40
-2.98172 0.873972 5.4317 70 50 60
-2.97871 0.881698 5.40142 45 20 32
-0.422869 1.32215 5.73841 84 64 64
-3.15777 1.23647 5.83764 122 34 24
-2.58511 1.35368 5.79043 123 33 32
-2.01913 -0.419471 6.40891 96 58 29
1.62478 0.111968 5.72389 100 64 50
-2.83005 0.16835 5.19623 148 90 90
-3.10542 0.23538 5.13352 92 48 42
-0.416388 0.451843 5.51962 106 84 62
-0.102448 0.494901 5.74709 135 84 62
1.09744 0.698113 5.89166 118 82 68
-0.654273 0.619791 5.42258 95 28 22
-2.89296 0.602453 5.38948 54 47 56
-3.25362 0.670824 5.23927 157 120 84
-2.77004 0.908626 5.58772 120 27 9
-3.01058 0.867887 5.39308 44 28 38
-2.97435 0.941104 5.43037 62 0 1
-2.90481 1.06052 5.79988 86 22 8
-0.39165 1.30066 5.73198 64 36 35
-3.12181 1.14637 5.74926 147 80 52
-3.15849 1.23135 5.832 145 83 70
1.10026 -1.53413 6.09635 132 122 82
0.733475 -1.03915 5.33975 138 96 70
-2.24279 -0.869943 6.26439 38 22 8
-2.5912 -0.719104 6.14257 128 86 62
-0.933112 -0.565824 6.47595 66 22 12
-3.043 0.142364 5.12172 180 64 65
-2.82475 0.166888 5.16639 148 89 90
-2.85649 0.249669 5.19269 162 128 124
-2.64868 0.287013 5.56588 158 138 112
-2.7726 0.292515 5.4037 129 90 64
-3.16528 0.379185 5.38095 167 136 120
-3.23885 0.463082 5.35381 166 139 118
-3.263 0.676953 5.2718 164 132 102
-2.91913 0.723758 5.37328 18 14 26
-0.179697 1.00866 5.53823 96 80 77
-2.6817 0.876952 5.66841 120 24 23
-2.75608 0.873182 5.57986 82 2 5
-2.77605 0.910993 5.60937 126 22 15
-0.683888 1.14214 5.75886 110 58 49
-3.06455 1.00377 5.45732 135 32 19
-1.09328 -1.03508 6.31902 110 70 45
-1.3155 -0.997187 6.45635 162 108 84
-1.23658 -0.900353 6.32919 86 32 16
-1.33117 -0.902781 6.4152 90 40 27
-2.57689 -0.768729 6.16674 104 66 46
-2.32576 -0.606543 6.13295 127 74 63
-3.0698 -0.0958849 5.08692 84 81 86
-1.8427 -0.0814429 5.89294 224 174 133
-3.14488 0.163582 5.13582 152 64 54
-2.85979 0.177872 5.13779 120 39 44
-2.82037 0.195342 5.17272 163 146 142
-3.08982 0.249526 5.13721 161 114 104
-2.74418 0.792903 5.53645 67 52 56
-0.608383 0.939959 5.45896 100 88 82
-0.689765 1.14453 5.75519 103 59 49
-3.09967 1.13195 5.64055 138 50 25
-3.13737 1.19818 5.80091 161 107 88
0.883512 -1.52537 5.96435 97 72 31
0.805975 -1.27761 5.81164 143 120 98
-1.17093 -0.992199 6.30531 126 82 64
-1.31584 -0.996198 6.41826 168 113 90
-2.24826 -0.887554 6.32203 36 19 6
-2.48379 -0.750773 6.111 156 107 81
-0.919045 -0.526492 6.43808 129 80 62
-2.93441 -0.0491327 5.13245 154 142 126
-3.1536 0.162023 5.18196 145 48 40
-3.10364 0.237803 5.10982 88 48 40
-3.15428 0.374545 5.29669 167 136 121
-2.89361 0.479573 5.3075 67 0 0
-2.83902 0.574331 5.38544 30 22 32
-2.81468 0.568657 5.27324 30 21 33
-2.90294 0.674555 5.41156 101 95 106
-0.265534 0.923658 5.4049 87 73 68
-0.65979 0.919964 5.48069 158 106 99
-0.229834 0.99563 5.40466 164 147 146
-3.17006 1.25992 5.90204 134 54 41
-3.05236 1.27591 5.71539 174 89 42
-1.28699 -1.03991 6.47762 108 62 46
-1.40488 -0.930338 6.61073 119 108 66
1.12789 -0.746462 6.07537 160 130 92
-0.76739 -0.737446 6.4937 84 68 28
-1.08581 -0.704941 6.38953 56 22 10
-0.805922 -0.308282 6.35216 23 6 3
-0.770237 -0.243566 6.36222 96 66 44
-2.67102 -0.0676257 6.46402 143 124 100
-3.05245 0.141474 5.12944 184 68 69
-3.15462 0.159825 5.19413 146 38 34
-3.14761 0.185964 5.27302 192 144 135
-2.65293 0.277815 5.6048 156 140 118
-3.14773 0.256648 5.20227 144 65 52
-3.13232 0.27401 5.1797 145 39 34
-3.17813 0.372423 5.37964 162 142 122
-0.532954 0.9228 5.52142 98 82 78
-0.257498 0.987455 5.36678 137 120 118
-3.0425 1.26488 5.69771 180 112 46
-1.06949 -0.850969 6.34139 154 100 80
-0.749185 -0.641696 6.41255 138 133 87
-0.817832 -0.322399 6.32976 24 8 3
-0.738758 -0.311304 6.40059 124 100 80
-0.746355 -0.259172 6.44527 100 68 46
-2.62927 -0.146162 6.43415 52 18 7
-3.05035 0.134248 5.11659 162 38 40
-2.53197 0.243552 5.65841 114 24 5
-2.90627 1.08517 5.82791 82 6 8
-3.07368 0.992936 5.46256 144 32 24
-2.78613 1.16419 5.90134 142 60 24
0.847503 -0.301551 5.94575 62 33 21
-2.6624 -0.147054 6.42036 64 30 8
-2.77381 0.285598 5.40654 90 48 26
-0.564492 0.95223 5.45353 84 66 60
-2.33339 -0.752223 6.09243 76 40 23
-0.722672 -0.386157 6.38136 139 98 73
0.991655 -0.645907 5.30175 167 138 128
-0.858558 -0.526599 6.36034 144 96 78
0.906817 -0.739519 5.30869 31 6 4
-0.735949 -0.387053 6.38434 156 108 84
0.957296 0.731359 6.05854 96 71 70
0.85808 -0.977319 5.30212 133 86 62
-2.647 0.274982 5.47897 148 124 94
-2.38366 0.276088 5.69269 120 27 22
-2.44447 0.818679 6.60454 182 134 111
-0.404202 0.428232 6.92639 102 82 48
-1.2447 -0.890628 6.32465 111 52 30
-0.651792 0.626667 5.42425 86 28 22
-0.532046 0.954247 5.443 74 58 50
-0.581997 1.25194 5.78421 162 138 132
-1.81547 0.349172 2.71462 68 60 62
-3.02914 -0.121175 5.07087 73 72 101
-2.66889 -0.105423 6.44591 144 124 103
-2.97162 -0.188834 5.12443 65 63 68
-2.93793 -0.170464 5.10753 48 49 55
-2.91684 -0.11881 5.13506 83 74 72
-2.84551 0.232146 5.20872 110 84 86
-2.72828 1.10875 5.84724 142 86 78
-3.02494 -0.184819 5.08411 104 98 92
-2.97332 -0.186276 5.12549 36 39 55
-3.05287 -0.164334 5.08365 86 86 86
-2.92556 -0.144495 5.1265 44 40 56
-2.92632 -0.0935376 5.13269 41 38 56
-0.213777 0.887915 5.41114 152 124 122
-2.44541 -0.765824 6.10604 32 13 8
-2.61055 -0.0939489 6.46724 158 104 76
-2.85555 0.222428 5.11165 160 144 146
-1.02417 -0.90177 6.30373 116 77 54
-1.51928 -0.244319 4.26362 90 58 36
-0.615258 1.23214 5.74885 126 95 90
-0.550685 1.34494 5.81503 98 67 60
1.286 0.882524 5.82464 150 88 66
-0.311588 0.937681 5.40736 90 72 66
-1.61379 -0.400774 7.03242 117 72 47
-1.8928 0.896984 6.45395 125 78 58
-0.884176 0.822253 5.83432 92 72 56
-0.962615 -0.573856 6.40723 64 22 11
-0.936095 -0.500433 6.44529 80 32 16
0.0678477 0.816993 5.5934 92 74 60
-2.766 1.15631 5.86553 148 76 38
-0.695761 0.858223 6.02848 158 136 120
-2.73916 1.061 5.81979 124 46 20
-2.47941 -0.825193 6.12476 114 74 50
-0.719449 -0.311083 6.45203 155 138 117
-2.83739 0.58518 5.34725 20 18 32
-2.93557 1.00461 5.71828 158 109 96
-2.83335 1.05572 5.76954 154 96 33
-0.541366 1.33592 5.81149 82 47 39
0.817056 -0.856002 5.1585 144 98 76
0.854123 -0.72276 5.40183 143 114 97
1.57377 0.0402585 5.5923 174 138 118
1.58181 0.0693076 5.62476 178 144 126
1.04072 0.128327 6.26601 88 66 50
1.77421 0.186978 5.79682 76 44 22
1.36397 0.248338 5.69846 68 46 35
-2.82207 0.182505 5.22102 158 112 111
1.22784 0.614549 5.94494 142 101 84
-3.11754 0.253291 5.15595 172 125 118
0.849467 -0.866766 5.20121 138 92 70
0.977569 0.078265 6.13205 130 103 86
1.61256 0.129447 5.74967 146 109 86
1.78536 0.183554 5.80978 92 60 38
1.07387 0.21288 6.31499 118 83 62
0.98676 0.224726 6.35687 92 54 28
1.90966 0.277191 5.91994 52 30 17
1.79583 0.306264 5.82008 54 33 16
-3.15067 0.171713 5.17264 146 54 45
1.34703 0.574688 5.68904 158 116 96
-2.87547 0.228235 5.13043 134 54 60
-2.86385 0.248525 5.14979 164 126 130
-3.16962 0.382222 5.37911 176 125 110
1.37683 0.958373 5.82447 114 78 74
-2.82243 0.651011 5.44001 116 110 122
-2.74385 0.898139 5.62197 114 26 10
1.02192 0.0676342 6.17649 154 124 102
1.32689 0.569987 5.66497 146 102 81
-2.87206 0.241589 5.14232 150 104 107
1.37929 0.959112 5.86398 46 23 21
-2.75308 0.802706 5.57 50 27 32
-0.100359 1.15366 5.5703 142 45 42
-3.04228 -0.0403361 5.12287 141 128 121
-2.48485 0.0919605 6.5606 154 128 108
1.15899 0.592819 5.85515 118 68 48
1.30077 0.595046 5.73781 88 42 21
-2.67332 0.864946 5.6562 126 44 41
0.87611 -1.33006 5.929 146 123 106
-2.54842 0.0643802 6.29849 108 75 54
0.891651 0.312432 6.4833 142 112 98
-3.04295 0.145246 5.10384 189 80 80
-0.0935216 0.498904 5.78327 128 66 50
1.44115 0.613247 5.74808 95 53 31
0.928541 0.835117 6.3486 144 120 106
1.35527 0.880391 6.13201 102 54 55
-2.68089 0.526626 5.50444 162 122 104
-2.68578 0.877504 5.63964 126 24 24
-0.586551 1.25195 5.81378 116 88 80
0.884162 -1.13821 5.50525 152 130 110
0.833521 -1.13784 6.03975 137 108 68
0.707001 -1.06003 5.81084 148 133 89
0.729296 -0.932762 5.78881 98 82 46
-2.13824 -0.513293 6.27179 46 10 4
-2.60465 -0.012546 6.29737 130 100 80
0.826801 0.227661 6.1478 120 91 74
-3.0769 -0.0207433 5.27865 156 142 124
0.871379 0.596126 6.47162 89 65 49
-3.09902 0.191552 5.10651 177 110 106
-2.84876 0.584277 5.43002 34 27 39
-0.279524 0.860635 5.39737 138 80 76
-2.88121 0.605014 5.35804 121 115 120
-0.505581 0.962831 5.44124 134 116 112
-2.68238 0.871141 5.69383 128 28 26
0.811839 -1.33608 5.85617 134 104 78
-2.49386 -0.765704 6.1886 154 104 80
-2.52254 -0.236413 6.38188 98 52 38
-2.94066 -0.0467862 5.17599 156 142 127
-3.07617 -0.02888 5.22839 156 140 124
-2.48942 0.0926523 6.47453 160 134 114
-2.81389 0.0721499 5.29398 116 30 22
-2.91025 0.609204 5.32761 22 18 32
-0.237412 0.884807 5.36923 138 122 120
-0.551912 0.90391 5.4139 93 80 76
0.918276 -1.02215 6.12386 107 94 54
-1.39433 -0.906216 6.51681 46 26 14
-2.57404 0.0648648 6.82514 97 59 38
-2.82979 0.0269962 5.27256 152 118 100
-2.81952 0.0708945 5.30226 118 26 20
0.872508 0.580746 6.25917 109 20 16
-2.85833 0.221432 5.09033 158 144 144
-3.1077 0.229642 5.19676 180 142 138
-0.523724 1.05687 5.78679 142 94 91
0.964789 0.163276 6.34624 126 98 72
1.19587 -0.0536975 5.91651 60 40 22
-2.70639 -0.207263 6.38901 134 108 84
-1.19243 -1.06364 6.33173 106 72 54
-2.38008 -0.711618 6.10816 105 56 44
-1.05119 -0.77216 6.36025 134 82 64
-2.51507 -0.0193523 6.36584 68 36 30
-2.3845 -0.454763 6.27951 30 9 3
1.32353 -0.0137595 5.78228 148 104 82
2.21175 0.758525 6.69533 156 106 86
1.34092 0.27742 5.72916 122 97 85
-0.250117 0.956307 5.43952 74 56 50
-2.46151 -0.856586 6.0881 89 55 35
0.892121 0.738631 6.34968 93 83 68
0.935534 0.639853 6.17673 164 124 118
-1.24418 -1.01495 6.36552 82 40 26
-0.271696 0.953656 5.40004 54 38 32
-0.301652 0.980893 5.3945 46 26 22
-2.91293 0.724651 5.37032 18 14 23
-2.46153 -0.862084 6.14692 92 60 39
-3.04465 0.145911 5.12792 182 68 70
-2.83872 0.241545 5.17352 149 130 132
-2.85871 0.245349 5.1388 166 135 138
-3.05392 -0.0373274 5.15647 134 118 110
-3.21895 0.453831 5.32916 152 84 70
-0.653489 -0.373432 6.46973 98 78 49
-2.68384 -0.282815 6.41607 160 144 127
-2.38142 0.35497 5.69701 126 24 20
-2.86384 0.583477 5.38454 19 14 28
-2.84043 0.654102 5.43373 68 63 76
-2.91641 0.706925 5.31946 20 14 26
-2.53407 0.256572 5.67776 110 19 6
-3.23892 0.428231 5.40222 139 89 70
-0.219984 0.998 5.43841 138 122 119
3.92934 -0.709467 10.2017 61 15 12
-2.70064 -0.36224 6.44404 140 122 100
-2.70266 -0.289346 6.43245 160 148 128
-0.216813 0.887265 5.4224 146 116 114
-2.48043 0.0886612 6.53855 143 114 96
-0.230107 0.989686 5.40435 172 156 150
1.40143 -0.101449 5.58305 52 45 50
-3.06036 0.145655 5.13367 180 70 71
-0.446326 0.488132 5.52258 100 58 39
-0.873791 0.846762 5.78321 90 66 60
-0.52753 0.967544 5.43618 62 39 33
-2.26918 -0.662353 6.15337 86 30 16
-2.66492 -0.199551 6.41501 186 138 110
1.26529 0.865034 5.77221 178 128 98
-0.89336 0.913944 5.75608 122 100 93
-0.194291 0.912066 5.39751 147 108 104
0.73741 -1.00522 5.3217 94 51 22
1.25497 -0.670412 6.14503 105 58 24
-2.66602 -0.439348 6.41634 159 143 120
-0.746098 -0.245469 6.41335 92 64 39
-0.213633 0.888412 5.39612 156 124 118
-0.320794 0.935327 5.40149 96 78 73
-0.929287 -0.608722 6.5007 48 14 10
-1.58811 -0.393051 7.03291 62 23 8
-2.52589 -0.227266 6.37873 105 61 46
-2.99342 -0.178711 5.29329 64 64 72
-2.92511 -0.115505 5.14781 58 52 58
-2.48361 0.943339 6.60217 176 128 100
-1.46232 -0.36278 6.83902 106 59 38
-2.54852 0.0792113 6.54001 106 70 48
-2.82398 0.0328556 5.24941 114 52 39
-0.694827 0.89068 6.0822 124 102 88
-2.83656 0.167835 5.22046 146 91 92
2.27074 0.334872 6.06818 173 138 116
2.13165 0.597748 5.93413 128 105 86
1.06818 0.675815 5.88045 126 91 75
0.946529 0.745778 6.04144 108 86 82
-0.0621964 0.834313 5.48667 86 71 61
1.70065 0.955347 5.81955 138 110 96
-0.236669 0.988647 5.38296 170 154 150
-2.90803 1.06491 5.79478 88 26 4
1.13614 -0.70927 5.06056 120 94 85
1.57646 0.0313753 5.60757 58 24 17
-2.6313 -0.0157593 6.46432 108 73 51
-1.52825 0.0675293 5.99408 144 89 73
2.01488 0.658525 5.84142 140 101 80
-1.2435 -1.01582 6.35724 62 21 8
-2.67993 0.520436 5.48725 168 138 116
1.46458 0.720651 5.73261 135 96 78
1.44514 0.725433 5.73064 139 102 86
-0.329952 0.788888 5.31646 106 80 65
-0.913901 0.857871 5.81746 117 90 80
0.874496 -1.51761 5.91346 98 78 33
-2.86044 0.251204 5.13923 137 74 76
1.85973 0.70249 5.80089 158 98 80
1.30284 -0.52357 5.92585 77 80 50
-0.725339 -0.303436 6.45641 162 141 118
-1.26528 -0.0481572 6.1612 146 100 77
1.56909 0.0675581 5.6003 166 137 118
0.999495 0.167829 6.41333 134 104 79
1.32248 0.244859 5.70584 184 156 138
-1.29231 -0.650356 6.38589 132 116 74
1.40211 0.279446 5.77858 140 117 105
-1.31788 0.239145 2.16527 112 44 25
1.54486 0.836736 5.77421 180 138 130
-3.10624 0.74712 6.0852 20 16 29
-0.883318 0.912342 5.82385 119 94 88
-0.196419 0.923122 5.43711 135 115 112
0.881611 -0.878301 5.22766 115 64 38
-2.25356 -0.803955 6.20696 142 91 70
-2.06681 -0.166795 6.25147 91 46 22
-2.70305 -0.130391 6.50953 161 144 122
-0.308441 0.833332 5.42647 104 54 42
1.37086 -0.294386 5.47944 180 92 62
1.64041 -0.0457814 5.57412 130 86 69
1.44792 0.727449 5.73621 150 116 102
1.54245 0.319808 5.79609 158 118 96
-2.9881 0.956515 5.48503 55 1 2
0.830514 0.239602 6.43839 137 104 80
-2.80408 0.615342 5.42986 42 34 44
-2.46025 -0.804901 6.10525 154 107 86
-2.18382 -0.837506 6.32349 40 22 6
-1.04065 -0.766783 6.34534 110 66 50
-1.22615 -0.599534 6.4419 153 98 67
-2.82487 0.625156 5.43937 20 20 32
1.36903 0.826515 5.75686 99 106 95
1.55077 0.837741 5.77486 160 104 94
0.110882 0.832626 5.674 110 90 74
-0.641518 0.943822 5.56794 149 90 85
-2.85049 1.07155 5.74935 138 54 20
-2.60656 1.35964 5.84644 122 20 20
-1.36495 -0.897379 6.39643 99 67 44
1.37387 0.222168 5.80348 184 156 138
-1.67225 -0.343514 6.97147 77 41 10
-0.91422 0.812436 5.5686 158 130 119
-2.99447 0.983414 5.55147 139 65 36
-2.07397 -0.4341 6.40508 130 90 61
-2.7399 1.11123 5.89766 140 84 74
-3.04132 -0.0410285 5.12997 122 110 108
-3.04393 -0.0111971 5.15467 150 134 124
4.34733 -1.94875 9.02791 120 94 76
-3.06872 -0.0943704 5.08583 96 90 92
-3.04593 -0.0106725 5.15903 150 135 124
-3.23496 0.427017 5.39352 118 43 22
-2.9485 0.681498 5.35136 27 22 31
-0.323165 0.908754 5.41167 152 132 126
-0.553293 0.943034 5.40326 63 46 38
-2.76313 1.15005 5.88736 134 64 33
-0.762192 -0.703611 6.46847 80 62 25
-1.73192 -0.386201 6.84321 106 72 39
-3.04303 -0.012927 5.13219 160 140 130
-2.94204 0.635197 5.32683 52 45 55
-0.115607 1.14543 5.5713 156 30 26
-2.95136 -0.0394031 5.195 137 126 116
-0.568717 0.603021 5.44213 26 12 10
1.77276 0.711632 5.87972 178 149 138
-2.77998 1.15585 5.91288 133 57 28
-2.92585 -0.115675 5.1292 38 34 54
-2.12506 0.250704 6.39723 173 124 98
-2.92705 -0.0548859 5.15963 161 146 125
-2.1936 -0.781425 6.25501 78 42 26
-3.043 -0.0123914 5.16137 146 129 120
-2.77499 0.303261 5.49968 77 29 12
-0.43649 0.447546 5.49887 94 68 46
-0.891043 0.852604 5.81666 136 114 105
0.0262239 0.876137 5.65348 138 124 114
-0.0677958 0.882798 5.51549 126 85 77
-0.371093 0.849782 5.31089 62 43 29
-3.10162 0.252712 5.17009 172 114 111
-2.80288 0.299636 5.5421 148 114 95
-3.10805 0.372961 5.18378 170 121 102
-0.867356 0.836684 5.81889 158 133 122
-2.98137 0.861319 5.40271 50 28 36
-0.238084 1.08743 5.45684 67 26 26
-1.292 -0.68764 6.50466 158 140 93
-2.42054 0.86135 6.55859 185 132 106
-0.181629 0.960131 5.42919 150 118 110
-2.71324 0.906915 5.69387 154 100 85
-2.98727 0.865796 5.41529 50 32 40
-1.39566 -0.573394 7.16191 136 100 66
-2.94278 -0.0329349 5.17107 155 142 126
-2.18603 -0.845145 6.3571 44 26 8
-2.51854 -0.243061 6.4519 93 50 34
-2.82048 0.0348039 5.26121 128 77 60
-0.871218 0.882851 5.78709 91 66 60
0.0658384 0.914345 5.67373 146 130 118
-0.850932 0.910644 5.82896 162 136 126
-1.05042 -0.848514 6.36533 132 84 68
-0.687939 -0.548379 6.41287 88 66 34
-1.52382 -0.496319 7.15583 97 64 26
-2.07754 0.0221132 6.06934 143 92 68
-2.89096 1.06375 5.73263 85 11 8
-1.53382 -0.480486 7.01889 98 66 28
-1.69041 -0.403827 6.82831 144 135 102
-1.97389 -0.0623528 6.20081 77 35 14
-0.863171 0.826585 5.76739 161 137 124
-0.347557 0.993696 5.57346 151 58 52
-3.02808 0.89384 5.50067 38 26 33
-0.976052 -0.826435 6.30253 100 64 47
-1.34376 -0.577959 6.68451 128 94 55
-2.66402 -0.293298 6.50021 60 27 14
-1.57831 0.840304 6.77892 96 60 48
-0.736505 0.82034 5.6333 114 93 86
1.52978 -1.3337 5.2548 224 210 200
1.84275 -0.997676 5.11447 138 108 82
1.28592 -0.866596 4.90209 92 70 63
1.24064 -0.749403 4.99841 86 69 62
1.23913 -0.711795 5.07778 156 136 128
1.38919 -0.693841 4.98831 221 204 201
1.06734 -0.517344 6.22197 96 58 24
1.2677 -0.212432 5.61492 82 62 53
1.22168 -0.215226 6.17334 154 158 150
1.47378 -0.143194 5.56571 80 64 60
1.80502 -0.139653 5.56236 170 134 116
1.21238 -0.159195 6.31972 140 122 100
1.58671 -0.0864108 5.64231 128 78 60
1.49707 -0.0722072 5.55626 118 77 60
1.81799 0.078421 5.75118 141 122 108
-2.84741 0.289235 5.61262 110 71 54
1.73186 0.254274 5.60457 148 118 104
1.12818 -0.946729 4.97609 161 120 99
1.32685 -0.715869 5.06861 171 154 149
-2.17995 -0.799679 6.10993 135 94 74
1.25067 -0.698798 5.10696 95 73 66
1.19073 -0.667322 5.06643 161 138 128
-1.30998 -0.793353 6.32876 99 28 7
1.04924 -0.61951 5.44974 78 50 21
-1.43664 -0.509835 6.93348 120 84 46
0.855897 -0.456401 5.97735 96 74 34
1.73539 -0.357425 5.53723 120 92 83
-1.59166 -0.398337 7.07989 74 32 10
-1.68197 -0.402693 7.28204 78 39 14
0.812871 -0.328992 5.94595 62 38 14
0.931701 -0.339479 6.03554 160 132 116
1.42868 -0.307167 5.51632 126 64 44
1.62993 -0.260192 5.59397 70 36 25
1.30415 -0.242427 5.71687 126 102 94
1.17975 -0.19164 6.17969 21 9 2
1.22645 -0.142197 6.43913 48 27 12
1.27732 -0.101596 6.0187 113 92 66
1.23338 -0.112821 6.46818 126 110 90
1.2212 -0.0948493 6.4826 66 40 17
-2.40299 0.029166 6.43174 45 13 4
1.51561 -0.00464638 5.58825 64 42 38
1.97295 0.0374566 6.00911 144 132 111
1.8748 0.0509077 5.87708 150 128 110
1.05999 0.0856116 6.21013 34 14 0
1.98319 0.0751929 6.00556 40 31 16
1.71628 0.196539 5.73498 42 17 6
-0.479646 0.471612 5.6447 148 104 76
-1.92675 0.822989 6.45961 185 130 98
1.97132 0.732026 5.78719 104 76 60
1.2721 0.807385 6.15362 204 184 178
1.82922 0.756503 5.75857 153 90 76
0.14347 0.84293 5.85896 124 106 92
0.125373 0.905574 5.75529 92 68 62
-2.9189 1.1476 5.69689 114 51 42
1.15214 -0.954725 4.96045 188 152 134
1.1657 -0.969546 5.05636 178 143 125
1.8236 -0.995297 5.07505 141 114 90
1.77208 -0.961629 5.04865 40 16 2
1.29651 -0.838246 5.13739 88 67 58
1.33424 -0.776794 5.10298 78 64 57
1.21884 -0.760322 5.06143 126 101 92
1.18522 -0.732204 5.06628 66 44 32
1.31224 -0.707756 5.02932 171 154 149
-1.29669 -0.882178 6.41283 128 63 39
1.52357 -0.700266 5.05877 122 36 28
1.00759 -0.606699 5.33345 90 56 34
1.7748 -0.601804 5.4418 94 78 56
1.30028 -0.467773 5.61225 164 130 118
1.23125 -0.409333 5.52852 156 127 112
2.00833 -0.452627 5.94871 98 86 66
1.7759 -0.359315 5.61397 161 127 110
0.808721 -0.317552 5.98368 137 116 88
1.80571 0.308923 5.7321 174 154 143
2.07297 0.437786 6.01086 72 44 20
0.119153 0.821966 5.69765 112 93 78
-0.0551421 0.91853 5.75787 78 34 26
1.87828 0.974948 5.9714 174 140 110
-2.94481 1.15975 5.76701 132 81 68
-0.570104 1.21421 5.78046 214 184 178
1.47633 -1.49772 5.29613 122 101 58
0.76973 -1.39163 5.92437 119 98 54
0.842327 -1.08938 5.47614 128 108 84
1.29507 -0.868822 4.93535 88 66 54
1.17941 -0.755673 5.03527 198 173 162
1.28852 -0.517214 5.89251 109 111 80
-2.28432 -0.399539 6.4125 117 64 37
1.97971 -0.409211 5.92391 154 139 108
1.01512 -0.375549 5.98976 153 108 84
1.55831 -0.333848 5.54893 74 38 22
-1.83668 -0.0767044 5.86848 208 150 112
1.66815 -0.108528 5.60689 140 94 72
-2.81221 0.0297664 5.2529 111 50 31
-2.33873 0.0320328 6.21383 47 14 5
2.10971 -0.0260197 6.04369 138 88 61
-2.4539 0.0651406 6.48085 36 10 2
-1.54367 0.077248 6.105 167 110 92
-2.45982 0.213765 5.76205 128 74 62
1.81245 0.224333 5.7395 172 150 132
-2.77382 0.313922 5.51925 83 26 10
1.41723 0.330261 5.7782 40 28 22
1.30455 0.528279 5.77938 142 108 96
-0.51316 0.804474 5.393 112 54 46
-2.74252 0.856033 5.54142 66 3 4
-2.93459 1.15592 5.74562 146 100 86
0.713615 -1.12625 5.70153 102 76 44
1.01532 -0.954917 5.1037 176 134 110
1.62533 -0.894952 4.84611 20 9 2
1.15368 -0.741134 4.97575 192 167 156
1.33992 -0.752152 4.98826 202 183 180
1.19257 -0.720052 6.25903 144 70 36
1.80867 -0.672417 6.0272 72 32 10
1.74059 -0.590186 5.38265 61 46 30
1.32513 -0.306722 5.49308 164 64 38
1.39921 -0.104729 6.56805 60 40 18
1.14275 -0.0659742 6.26646 70 39 18
1.72351 0.0175159 5.78014 153 116 98
1.81039 0.258827 5.73643 112 84 70
1.5644 0.406956 5.72823 197 174 162
-1.29601 0.748891 6.62235 175 124 99
-2.91805 1.14823 5.69414 112 50 40
1.76738 -0.344986 5.8177 20 10 8
-1.5416 -0.293763 6.93302 54 15 3
-1.34443 -0.231681 6.26673 102 59 28
-2.07111 -0.172531 6.24505 93 49 23
-1.371 -0.141757 6.25549 70 26 8
-1.94713 -0.0513433 6.01386 77 33 13
0.91571 0.142564 6.43748 24 13 4
1.02297 0.166766 6.4274 149 118 90
1.24384 0.203408 6.08193 164 112 88
1.29849 0.252917 5.80426 118 86 74
1.7958 0.274667 5.81088 42 18 6
1.408 0.623411 5.67284 150 106 87
-1.1508 0.858343 6.59113 205 154 116
1.80959 0.758344 5.80643 188 158 139
0.83974 -1.11393 5.52454 130 108 88
1.04009 -0.888093 4.99345 112 62 33
1.86862 -0.640237 5.70321 53 36 27
1.51293 -0.473725 5.55895 150 136 124
-1.44724 -0.288581 6.68903 149 101 74
-2.70313 -0.224289 6.40965 114 86 57
0.971583 -0.210389 6.14203 155 122 104
1.48144 -0.1064 5.64881 12 7 12
-2.57319 -0.0255022 6.62772 103 60 44
1.54595 0.111446 5.71717 110 56 39
-2.13762 0.262254 6.50743 169 118 96
1.49509 -0.889519 4.95071 149 120 107
-2.64498 -0.352019 6.41869 143 92 73
-2.14686 -0.344544 6.30185 159 112 91
-2.63833 -0.285881 6.40257 46 17 8
-0.768192 -0.185455 6.64945 164 150 128
0.924488 -0.164391 6.0584 70 26 6
1.72118 -0.13521 5.5406 112 76 58
-2.63909 -0.0680334 6.35463 122 90 64
-2.53208 -0.0471668 6.35304 69 28 18
0.980374 -0.0178165 6.02878 142 107 84
-1.82599 0.0470319 5.95984 188 127 106
1.4695 -8.29796e-05 5.75302 41 18 12
-2.34903 0.0920745 6.3094 70 27 12
-1.69912 0.108926 5.92392 59 16 6
1.30265 0.061995 5.794 172 128 106
-2.68492 0.538243 5.54074 161 140 124
-0.0570939 0.79661 5.515 128 116 106
-2.6502 0.83344 5.51633 120 18 20
-2.56166 1.3031 5.67169 122 16 15
1.4612 -1.52002 5.41943 187 136 112
1.68179 -1.40726 5.54207 125 112 104
2.3273 -1.3583 5.74021 92 62 28
2.01798 -1.02679 5.15434 161 130 102
1.30847 -0.869577 4.84893 212 187 178
1.86566 -0.807807 5.01827 94 36 20
-2.37708 -0.928234 6.41926 78 56 38
1.45596 -0.859125 5.54704 159 137 132
1.94783 -0.793219 5.15814 174 124 87
1.24863 -0.737657 5.01681 84 68 64
1.39304 -0.76414 5.32215 126 110 104
1.41645 -0.716403 5.08076 190 171 166
1.53282 -0.712046 5.06673 122 46 40
1.71191 -0.697983 5.0438 111 100 88
1.98413 -0.736948 5.25581 66 26 12
1.73718 -0.816421 5.77991 113 96 91
0.901802 -0.63832 5.2182 182 139 118
1.04072 -0.708279 5.75911 96 50 29
1.31276 -0.817738 6.47466 84 29 11
1.1685 -0.619869 5.38289 178 139 124
1.50156 -0.531879 5.65631 102 88 78
1.09931 -0.511515 6.50301 116 95 61
1.06048 -0.493487 6.52233 100 63 37
1.20251 -0.355598 5.42373 120 36 21
2.00791 -0.414151 6.00186 144 128 102
1.36509 -0.393063 6.04098 89 76 56
1.70435 -0.283202 5.71945 82 38 20
-1.49079 -0.261828 6.75854 56 16 1
1.24354 -0.268624 6.26975 82 99 84
0.98786 -0.261437 6.33367 95 65 42
1.96096 -0.178061 5.81156 169 140 120
1.739 -0.120833 5.40427 68 22 7
1.18869 -0.0841607 5.78458 176 144 118
1.68279 -0.0198609 5.51273 108 82 61
2.23289 -0.0263735 6.28608 124 81 58
-2.40517 0.0568034 6.51897 70 26 14
1.64849 0.0288356 5.76205 59 24 10
-1.49819 0.125452 6.34446 118 82 63
1.99753 0.076177 6.02635 52 38 20
1.02374 0.106964 6.48069 114 90 58
2.14653 0.133076 6.41 64 50 37
1.16364 0.24886 5.69052 48 20 9
1.61062 0.286814 6.10263 134 106 92
1.40556 0.300728 6.08125 214 192 184
2.47669 0.309169 6.63533 68 33 6
1.76203 0.432176 6.14064 203 180 168
-0.378096 0.471929 5.59534 146 101 83
1.09077 0.571102 5.8006 131 81 61
1.81218 0.613521 5.62901 216 201 195
1.63895 0.622374 5.48598 148 98 84
2.07869 0.689689 5.98826 136 82 62
1.99649 0.730107 5.97933 55 32 26
-2.85802 0.835781 5.40877 32 14 24
-2.74638 0.874172 5.56525 63 2 2
-0.0572687 0.949038 5.79349 153 88 80
-2.97743 0.959455 5.48214 74 2 0
1.64483 -1.37147 5.43482 78 63 46
1.70578 -0.9321 4.9317 42 18 4
1.89817 -0.777704 5.07271 172 120 82
1.2683 -0.749834 5.05978 92 76 72
1.17626 -0.725223 5.04708 62 42 36
1.22787 -0.728606 5.05907 163 142 136
1.35486 -0.708156 4.98918 102 83 78
1.60677 -0.713577 5.00529 118 110 100
1.81586 -0.750611 5.26119 151 137 120
-2.47131 -0.748389 5.91237 127 90 67
1.27405 -0.647399 4.87961 104 86 82
1.83227 -0.691123 5.15559 110 81 61
1.01856 -0.637897 5.44627 164 139 104
1.04699 -0.612494 5.35086 167 141 104
1.03702 -0.573682 5.07659 192 158 140
1.57142 -0.600793 5.53737 72 34 11
1.70694 -0.60853 5.88723 92 62 42
-1.35384 -0.527798 6.57166 106 75 41
1.44532 -0.525886 6.06029 130 112 97
1.55029 -0.469662 5.60323 154 130 118
1.37683 -0.489864 5.86518 100 88 74
1.18401 -0.526409 6.59051 94 24 6
1.84095 -0.400998 5.82851 94 71 66
2.15467 -0.443081 6.28867 142 126 102
0.857017 -0.311106 6.02847 133 102 86
-2.68414 -0.218302 6.32973 144 124 98
-1.47239 -0.252309 6.55202 55 15 1
1.31911 -0.286632 6.48017 66 80 67
1.71956 -0.254922 5.89195 54 22 8
1.90342 -0.173784 5.70728 178 149 130
1.92668 -0.133863 5.62224 140 110 86
1.93473 -0.122567 5.68757 127 92 70
2.23423 -0.148607 6.19149 139 104 80
1.4493 -0.112495 6.53605 50 32 10
2.26032 -0.0307904 6.33612 134 84 60
1.30395 0.0111691 5.83207 90 43 24
0.931098 0.0440956 6.23304 136 102 76
1.49932 0.0589831 5.5128 78 38 22
2.09211 0.0542356 6.25953 36 24 10
-1.74155 0.135522 5.87086 116 67 54
1.9394 0.105364 6.01988 93 74 59
-2.82129 0.286813 5.54648 132 98 82
-2.78629 0.291683 5.51796 164 144 126
1.24778 0.251004 6.11889 60 46 36
1.48348 0.286145 6.24378 137 110 95
1.33818 0.291524 5.9073 160 136 126
-0.371278 0.474993 5.6896 138 107 86
-0.687973 0.503234 5.76172 152 80 64
-2.70182 0.784111 5.49611 67 32 35
-0.367126 0.855331 5.29608 76 36 29
-0.336642 0.871171 5.42111 90 52 44
-2.96932 0.949174 5.4472 59 2 0
-2.97473 0.97383 5.48229 122 54 29
-3.03339 1.14056 5.58305 171 87 48
-2.89314 1.23657 5.76654 130 88 74
-2.93646 1.4979 5.62973 121 25 26
1.52654 -1.64546 5.38042 158 126 93
1.63785 -1.38148 5.43132 96 76 56
0.779399 -1.40033 5.94707 120 98 55
1.7432 -0.937925 5.04859 28 10 3
1.86046 -0.920692 5.0189 106 79 56
0.736167 -1.03021 5.76202 98 94 62
0.775569 -0.955584 5.62505 152 131 116
0.790687 -0.937843 5.88675 95 77 36
1.37037 -0.68873 4.95035 209 192 188
2.17172 -0.796646 5.57054 55 23 9
1.33448 -0.711662 5.28872 144 122 114
1.45925 -0.703839 5.22454 84 66 61
1.24956 -0.695017 5.24753 105 80 68
0.870777 -0.59767 4.99953 170 138 126
0.947219 -0.614213 5.09825 152 118 98
-2.35191 -0.632311 6.27173 77 31 21
1.24036 -0.731568 6.35307 137 67 39
1.27254 -0.658064 6.19169 86 45 11
1.79942 -0.649055 6.04382 166 142 113
-1.3523 -0.530125 6.54439 106 80 46
1.11758 -0.53883 6.37506 132 104 66
1.23003 -0.472852 6.13211 145 124 89
1.59274 -0.383685 5.57628 106 72 44
0.82973 -0.35824 6.00227 123 107 74
-1.5296 -0.371946 7.04952 128 78 44
1.70247 -0.311734 5.66284 88 48 36
1.19567 -0.226323 5.42937 114 92 84
1.90137 -0.202232 5.65245 174 144 123
-2.55556 -0.0870894 6.25784 160 106 78
2.06157 -0.117612 5.9913 163 124 103
1.22173 -0.0835995 5.91654 50 30 9
2.15424 0.0341016 6.36366 152 140 118
1.48081 0.0756352 5.07541 148 127 112
2.12249 0.061666 6.31856 30 19 9
1.15024 0.0859892 6.55687 90 64 49
1.23411 0.216783 5.89961 116 64 40
1.2029 0.226637 5.95092 98 70 54
2.22065 0.422984 6.20827 37 12 0
-0.465354 0.482809 5.84844 142 94 68
-0.676087 0.484884 5.64896 157 92 76
2.07662 0.768336 5.99127 79 52 36
1.97392 0.826127 6.04389 117 78 64
-2.73902 0.892908 5.5565 124 64 36
-2.94631 1.09268 5.69893 98 22 11
-3.06967 1.23641 5.71543 182 92 55
1.48863 -1.48905 5.43916 162 112 88
1.41448 -1.45316 5.4199 120 41 20
0.873108 -1.06663 5.44277 88 10 2
1.1901 -0.900658 4.9459 220 200 194
0.815141 -0.934246 5.29687 134 91 64
0.934401 -1.05248 6.35687 94 79 42
0.829984 -0.896623 5.93241 96 68 36
1.18306 -0.732749 5.06454 60 38 32
0.908699 -0.816376 5.74058 159 132 119
0.892261 -0.601681 5.04175 166 134 121
1.17421 -0.76572 6.22904 146 123 80
1.0588 -0.629957 5.47356 88 55 29
1.01877 -0.592937 5.49009 102 66 28
1.21158 -0.401023 5.41058 122 20 14
-2.04108 -0.436455 6.5456 96 57 27
1.37899 -0.446114 5.89191 160 130 112
1.60967 -0.412781 5.6243 108 72 46
1.23071 -0.455382 6.3277 124 33 28
1.29166 -0.381137 5.84841 98 84 64
-1.69113 -0.367449 6.59927 97 61 30
0.92798 -0.169561 6.19901 152 130 104
-2.10647 -0.0782599 6.06774 104 57 34
2.05078 -0.136786 5.85402 143 105 82
-1.96204 -0.0542955 6.1541 80 34 11
1.50662 0.0720857 5.59837 182 119 98
-1.51566 0.122674 6.61124 79 34 16
1.99823 0.0672055 6.07125 29 19 10
-2.83006 0.170822 5.09954 162 114 114
-0.494702 0.457029 5.4804 140 95 68
-2.84096 0.595848 5.25395 112 103 108
1.81386 0.613642 5.63271 202 186 180
-0.53967 0.687054 4.77837 68 20 12
-2.80117 0.801738 5.34181 38 18 23
-0.906232 0.831252 5.70368 114 84 72
-2.88509 0.843663 5.49035 20 10 20
-0.0570065 0.955732 5.78515 146 86 75
-0.270461 0.958945 5.61899 98 77 72
-2.86182 1.09263 5.66871 137 90 74
-2.90914 1.18125 5.60301 130 53 24
1.55798 -1.54344 5.60344 164 114 90
1.34235 -1.37439 5.15951 86 52 33
1.91245 -1.03887 5.24778 136 107 80
1.73747 -0.956919 4.99782 38 20 10
0.730576 -1.00588 5.65324 128 116 97
0.73901 -0.73323 5.25124 160 134 120
0.740831 -0.664587 4.86434 34 10 3
0.82881 -0.745257 5.36208 167 130 110
0.716681 -0.657717 4.98974 150 117 102
1.8338 -0.685839 5.0496 150 125 106
1.60015 -0.628813 4.98027 159 142 134
1.29572 -0.778273 6.33635 162 134 98
1.28697 -0.688007 6.25385 93 40 10
1.79893 -0.587002 5.50175 112 96 70
1.20168 -0.454261 6.28124 124 32 22
-1.6802 -0.432123 7.24946 160 148 122
1.36684 -0.0936795 6.6112 157 146 120
-2.46906 0.0122262 6.64858 38 14 10
-1.71682 0.0533208 6.01437 74 32 12
1.79993 0.0026066 5.99166 135 88 70
1.60467 0.182325 5.72717 27 14 6
1.18724 0.229238 5.91375 72 48 35
2.26293 0.293933 6.7733 49 24 11
1.39848 0.309633 6.48584 25 17 16
2.1751 0.395164 6.13626 36 15 3
-0.676775 0.490044 5.70969 179 116 101
2.08712 0.525713 5.89859 160 138 122
-0.655931 0.56144 5.63196 86 24 17
-0.680767 0.598665 5.52108 84 16 12
-1.43249 0.913034 7.25522 192 141 114
-2.90527 1.18069 5.5967 134 60 28
-2.95311 1.25233 5.89704 140 92 80
0.762061 -1.24039 5.71562 146 124 99
1.28729 -1.04352 5.0328 18 13 6
0.733224 -0.915795 5.72504 129 118 74
0.932599 -0.950721 6.26091 96 70 33
1.14323 -0.880206 6.24786 158 126 113
1.21862 -0.655918 4.88303 76 62 59
0.941767 -0.744851 5.57502 106 64 41
1.28907 -0.773712 6.32899 132 97 62
-2.38096 -0.568243 6.10443 48 13 6
1.04845 -0.62354 5.92204 90 42 16
1.18884 -0.605111 6.56517 140 135 88
1.24221 -0.460912 5.43766 170 138 129
1.13149 -0.43826 5.49552 147 142 96
-2.6824 -0.428133 6.41755 154 142 114
-0.695811 -0.465028 6.34808 128 116 78
0.856254 -0.326416 5.92615 170 138 122
-2.70017 -0.231307 6.39564 142 118 92
1.45998 -0.247356 6.08585 66 46 36
-1.32632 -0.142213 6.2491 146 94 66
2.33172 -0.200098 6.52363 133 97 78
2.09082 -0.128589 6.05924 149 102 80
1.4764 -0.0857729 5.64504 12 7 11
-2.61288 0.0402018 6.60421 120 94 70
0.859159 0.0642588 6.11829 36 10 4
0.929848 0.0620506 6.01158 164 128 106
1.46006 0.115411 5.04826 118 96 81
1.78522 0.151009 5.94118 46 21 8
1.21051 0.271829 5.87255 66 50 43
1.18323 0.287777 5.91542 32 20 16
1.27973 0.312448 5.5178 31 14 8
1.83246 0.413829 5.5611 84 56 32
-0.467962 0.49914 6.12373 146 102 76
0.939545 0.49509 6.32332 148 69 40
-2.85862 0.591253 5.37263 19 16 31
1.89402 0.705854 5.97883 166 102 80
-0.126151 0.70605 5.33688 139 72 57
1.85097 0.750027 5.74613 36 12 7
-0.299526 0.868331 5.58753 98 38 29
-2.80525 1.09385 5.41025 132 80 64
1.39953 -1.58719 5.25263 169 115 86
1.10878 -1.26816 4.55189 96 60 28
1.54498 -1.59778 5.63855 148 94 68
1.18359 -1.60572 6.31879 139 126 91
1.33657 -0.924522 4.80605 30 16 8
-1.04789 -0.979119 6.30834 114 69 47
1.35202 -0.76669 5.04668 188 170 168
1.10921 -0.708355 4.91528 93 68 63
0.786868 -0.772155 5.44872 159 133 120
0.974882 -0.849559 5.89394 142 110 92
1.11639 -0.722699 5.99907 110 46 23
0.936463 -0.590469 5.16183 98 62 33
-2.60076 -0.636382 6.26306 144 100 77
-0.860614 -0.508179 6.19263 130 84 66
0.875096 -0.43864 5.6596 118 62 37
0.950829 -0.377594 6.11995 130 104 91
2.39164 -0.456957 7.07994 26 8 6
-1.33419 -0.224946 6.1601 102 59 29
1.62763 -0.167821 5.20152 178 152 134
1.39595 -0.160497 6.45356 96 79 49
2.0759 -0.122313 6.03588 150 102 80
-1.47368 -0.0526572 6.3641 149 99 81
-2.47474 0.0100217 6.00476 166 142 124
2.00242 -0.0473105 5.89384 135 72 44
1.92259 -0.0291168 5.91013 152 137 114
-2.41676 0.0532977 6.19332 86 36 20
-1.77887 0.0810969 6.12056 154 104 90
1.40841 0.043126 5.04671 184 151 133
1.79791 0.0593955 5.79903 172 148 129
-1.47767 0.127682 6.26918 79 34 16
1.44703 0.214663 5.09716 180 150 126
1.63998 0.288981 5.19335 136 117 98
-0.488113 0.460675 5.71969 136 100 70
0.831795 0.533885 6.29042 166 138 125
0.823896 0.599346 6.19665 106 26 20
-0.570971 0.601715 5.47223 26 10 8
1.44382 0.65364 5.74881 118 72 52
1.92379 0.684436 5.77178 156 132 120
-0.0828223 0.735831 5.62494 130 64 49
-0.1795 0.94261 5.72744 136 115 113
-2.90673 1.09726 5.82384 100 6 6
-2.87445 1.19337 5.67453 144 101 87
1.45947 -1.49431 5.24953 159 146 100
1.10494 -1.33741 6.34118 138 118 98
0.709706 -0.803866 5.51323 98 74 34
-2.59127 -0.879062 6.48238 122 82 62
-2.38198 -0.995869 7.13726 40 23 8
1.25488 -0.776964 6.37051 117 47 28
0.98341 -0.61713 5.28708 98 58 34
0.774913 -0.43397 5.71607 113 92 54
1.44 -0.314761 5.2983 70 39 24
-1.60928 -0.330275 7.40115 50 14 2
-2.54336 -0.146573 6.13448 57 24 12
-1.4196 -0.175542 6.71167 70 28 9
-1.96363 -0.0709286 6.0392 92 48 24
-1.95405 -0.00889743 5.99788 141 89 68
-1.85477 0.0120892 5.89432 77 27 12
1.69509 -0.0476477 5.84209 64 20 6
-1.53334 0.0225388 6.08571 179 122 104
-1.84948 0.0432211 6.39556 100 56 43
1.529 0.171502 5.40268 56 33 22
1.52816 0.206073 5.28247 172 140 112
-2.73166 0.306151 5.39012 90 36 19
-0.320152 0.496095 6.17141 151 134 114
0.947799 0.51623 6.71961 166 141 126
0.934126 0.621653 6.58617 113 36 26
0.983441 0.646884 6.3676 170 124 118
-1.2929 0.702458 6.46694 182 130 108
-1.14771 0.80628 6.2422 176 122 91
1.3664 0.848394 5.78764 94 107 92
-0.550679 0.964473 4.54532 100 20 19
-1.34989 -0.520364 6.53264 100 67 30
-0.894172 -0.419355 6.40892 120 72 54
-2.83076 0.226164 5.16185 61 25 26
-2.94535 1.5054 5.65137 129 38 35
0.809952 -0.847457 5.38795 117 92 81
1.65929 -0.639078 5.78462 148 121 103
-2.4411 0.123147 6.60609 78 44 26
0.900003 0.775886 6.29243 58 38 26
-2.97296 0.924982 5.43545 72 9 10
-2.15334 -0.651383 6.16804 98 35 18
-2.87799 0.647342 5.37298 21 15 27
-2.92453 0.977173 5.61491 135 72 58
-2.73802 0.79667 5.57623 59 32 36
0.865277 -0.803923 5.37927 122 47 41
-2.79378 0.26317 5.3891 150 119 100
-2.65106 0.28634 5.59265 162 142 121
-2.77462 0.607747 5.31607 26 20 35
-2.92661 1.10183 5.6851 101 30 29
-0.921979 -0.655029 6.45259 130 82 60
-1.68011 -0.429943 7.24283 161 148 120
-1.18713 -0.997812 6.31937 144 94 75
-1.15049 -0.976704 6.30084 163 108 86
-1.47207 -0.0400871 6.0659 156 104 88
0.94736 0.101775 6.32606 122 98 81
-1.55427 0.164334 6.47505 102 75 58
1.17708 0.843846 5.91306 122 66 65
1.27837 0.844448 5.91056 132 49 43
0.787978 -1.32128 5.82571 122 91 62
0.739146 -0.981345 5.66082 154 136 116
1.29532 -0.858816 5.07257 66 51 44
0.827534 -0.859267 5.43468 110 82 71
1.20811 -0.785736 5.04944 162 136 128
0.793146 -0.905096 5.83473 180 157 130
1.36572 -0.765521 5.11251 100 82 78
-2.46707 -0.859504 6.18609 116 80 54
1.31199 -0.723685 4.98924 167 150 144
-0.61486 -0.00743849 1.03926 146 106 74
1.44732 -0.711917 5.07983 128 110 106
1.40302 -0.672059 5.02089 172 153 146
1.50136 -0.724034 5.35738 110 92 87
-2.30683 -0.378945 6.33805 166 110 86
-2.68579 -0.344696 6.38514 107 83 58
1.70984 -0.256894 5.55721 183 132 106
1.83571 -0.198334 5.48654 54 22 4
1.44305 -0.0270539 5.52625 116 93 99
1.86293 0.0498668 5.84226 126 110 96
1.3709 0.26653 5.90747 124 94 78
0.86052 0.574099 6.26783 123 38 18
-0.40972 0.551925 5.59417 121 66 48
1.97401 0.813192 5.85474 182 158 144
1.20377 0.898389 5.91448 142 86 84
1.9194 0.939734 5.89936 168 139 118
-0.283566 0.935062 5.47357 80 64 56
1.25878 -0.950909 5.19065 192 172 167
1.91971 -0.886118 5.0299 152 138 119
0.827161 -0.859801 5.44935 122 94 83
1.23682 -0.769302 5.11336 124 99 90
1.175 -0.737535 5.05748 82 58 50
1.33538 -0.733295 5.0463 162 145 140
1.31753 -0.752903 5.19962 108 88 84
1.3276 -0.639384 4.85627 160 140 134
1.28987 -0.712274 6.2398 126 94 59
-0.77144 -0.625613 6.55264 65 37 14
-1.35219 -0.530952 6.5907 99 64 30
1.47083 -0.434132 5.57763 140 106 95
0.835441 -0.45153 5.90577 92 72 34
1.05677 -0.4871 6.35011 136 111 79
0.895088 -0.317487 6.02906 166 136 119
1.30778 -0.204825 5.68903 40 25 18
1.84014 -0.188105 5.49433 59 26 6
1.63645 -0.168504 5.50176 160 88 55
1.85963 -0.124547 5.60721 176 140 118
1.68525 0.00141227 5.55397 67 30 11
-2.37998 0.0654543 6.42787 78 35 20
1.8841 0.0767886 5.77904 80 68 45
1.59862 0.100316 5.67857 126 94 72
-1.56099 0.180578 6.79238 150 128 102
0.910339 0.166884 6.40182 78 50 34
1.75179 0.243079 5.73912 164 132 106
2.21141 0.305651 5.92874 110 84 58
1.64398 0.320752 5.94619 104 68 46
1.35185 0.377453 5.96915 98 64 42
0.843907 0.72143 6.16727 132 118 106
-0.0718771 0.752738 5.63103 140 99 86
-2.993 0.933232 5.49587 80 8 8
1.83642 0.970113 5.90001 180 146 120
-0.28109 0.938834 5.50314 88 72 64
-0.566292 1.25242 5.75222 128 102 94
-2.76206 1.42745 5.63887 102 32 32
1.75422 -0.952819 5.00833 54 20 3
1.54369 -0.904589 4.82929 22 10 4
1.28985 -0.88679 4.8877 202 178 168
1.43878 -0.940447 5.16676 167 140 127
1.71706 -0.854506 4.84878 156 128 112
1.20987 -0.687929 4.83851 106 90 82
1.76405 -0.726254 5.09996 108 103 92
1.58366 -0.633891 5.01936 110 96 84
-2.19717 -0.652549 6.17923 181 122 102
-1.3531 -0.538435 6.58486 103 75 39
0.922369 -0.435238 5.84959 160 130 100
-1.49461 -0.487799 6.94352 96 68 34
1.47 -0.269273 5.62142 104 50 28
0.973099 -0.230997 6.23195 146 114 90
1.65972 -0.168109 5.54412 140 71 38
1.68292 0.00298306 5.54244 57 22 3
1.63191 0.102356 5.74433 126 92 71
-2.82197 0.175381 5.17892 164 132 130
0.963274 0.158757 6.25127 142 113 85
0.899922 0.1842 6.35153 104 64 39
1.57751 0.314493 5.78991 105 67 45
1.08442 0.691316 5.90268 134 98 82
1.21495 0.7847 6.00246 220 198 192
-0.661436 0.905624 5.49888 160 80 75
-2.90462 0.965416 5.57297 150 92 76
-2.93677 1.19076 5.68614 118 35 18
-3.06593 1.26795 5.72415 167 82 38
-2.78434 1.43988 5.69096 106 30 31
1.11119 -0.937695 4.91991 155 120 101
1.26062 -0.846287 5.07262 118 96 88
1.15937 -0.715413 5.05 175 148 142
1.1832 -0.692681 5.88396 130 103 76
0.853355 -0.336475 6.06611 50 23 4
0.879061 -0.280274 5.96427 76 44 25
-1.37262 -0.2599 6.48339 122 76 44
1.31418 -0.210276 5.65415 16 12 12
1.24504 -0.14429 6.49609 42 23 7
-1.48 -0.0121477 5.89949 74 22 12
1.03322 0.128491 6.39265 104 67 44
1.8645 0.328281 5.79164 40 27 14
1.51023 0.395968 5.58796 196 173 159
1.10501 0.558733 5.79824 180 130 108
-2.82022 0.629311 5.46653 30 24 34
1.14292 0.760585 5.79116 230 208 202
0.112357 0.894785 5.70647 96 72 67
1.82099 0.962662 5.84607 182 148 121
-2.84474 1.07262 5.74252 146 62 22
-2.80045 1.15238 5.72786 137 55 25
-2.75003 1.42616 5.68719 119 76 71
1.70412 -0.830695 4.99039 140 94 72
0.855202 -0.795024 5.33425 120 18 16
1.3481 -0.790352 5.24446 88 74 69
1.60663 -0.644886 5.08664 142 126 116
1.12009 -0.713262 5.73795 155 119 102
1.77774 -0.58533 5.64006 38 22 11
1.7202 -0.60597 5.92326 131 102 78
-1.51327 -0.486643 6.99456 98 68 32
-2.69609 -0.349248 6.40669 128 106 82
0.879198 -0.38664 6.16529 136 118 84
-0.68962 -0.346869 6.39441 94 67 36
1.75838 -0.284879 5.44314 176 150 128
1.63844 -0.0145401 5.55054 119 74 54
-2.50919 0.0421634 6.70494 36 10 6
-2.10406 0.0859442 6.08877 155 99 76
1.79292 0.0540819 5.72426 149 128 107
1.64306 0.110745 5.78519 95 61 40
0.985931 0.208324 6.37401 100 62 34
1.87228 0.240327 5.90536 180 154 136
1.84919 0.331695 5.93483 32 15 2
-2.5923 0.445542 5.54521 150 114 72
1.73009 0.699653 5.79152 184 156 142
2.03453 0.717068 5.86296 142 86 68
-0.0616031 0.759351 5.73353 134 84 72
-0.181007 0.948599 5.43997 146 110 108
-0.470948 1.27106 6.01109 70 28 28
1.44481 -1.7082 5.30832 120 90 44
1.15313 -0.902438 5.09771 162 133 120
1.05963 -0.848174 5.87629 98 68 59
-2.17518 -0.839797 6.37375 65 41 18
1.2157 -0.808641 6.46787 147 140 97
1.11935 -0.734859 5.97998 128 77 54
0.973351 -0.632998 5.6695 142 108 66
1.77364 -0.653184 6.043 148 133 102
1.66488 -0.579783 5.81021 131 102 84
1.35794 -0.56577 5.99386 105 101 78
-0.741889 -0.450541 6.35167 41 16 4
-1.64999 -0.490427 7.28827 156 145 118
-0.694798 -0.349924 6.39353 94 66 34
1.76377 -0.223452 5.48942 90 74 66
-1.74766 0.0911044 5.92781 170 118 104
1.57256 0.107082 5.64392 106 67 48
1.55799 0.15277 5.93341 121 89 72
1.74626 0.191139 5.82874 41 18 10
0.86991 0.736563 6.29157 119 107 96
-0.960389 0.858233 6.10924 154 118 104
0.119966 0.912308 5.81738 90 72 64
1.41294 -1.73568 5.40085 138 118 68
1.43262 -1.65571 5.21455 107 72 32
0.85181 -1.04148 5.35118 94 10 7
0.893546 -0.757743 5.32963 82 20 16
-2.40278 -0.702141 6.1751 86 42 30
0.781922 -0.423535 5.67647 94 62 27
-1.53061 -0.481204 7.08958 97 62 28
1.38479 -0.393471 5.99268 158 128 118
-0.647432 -0.390922 6.52549 157 146 118
1.45791 -0.234127 5.62783 22 8 7
1.30729 -0.186519 5.71416 160 131 118
1.25278 -0.163907 6.36765 158 144 120
-1.45625 -0.101311 6.15944 89 46 24
1.05122 -0.131852 6.17452 152 120 100
2.16902 0.0689579 6.40427 68 57 43
-1.52084 0.128028 6.15386 124 87 66
1.26046 0.155545 5.7677 178 132 105
1.24756 0.196496 6.10373 163 110 87
1.36172 0.25304 5.72036 184 158 143
1.80267 0.33537 5.8129 21 10 3
-0.801797 0.698899 6.61239 138 100 80
-2.77569 0.870697 5.61494 69 2 2
1.41078 0.934081 5.8985 132 50 38
1.81016 0.933446 5.86611 180 150 127
-2.74586 1.13467 5.77816 136 64 31
1.35999 -1.47982 5.32671 150 100 70
1.05934 -0.914764 4.79579 120 74 53
1.27602 -0.860919 5.10052 92 72 64
1.189 -0.778976 5.15447 132 106 96
-2.54357 -0.722525 6.15363 150 104 80
-2.48359 -0.642279 5.87252 59 29 18
-0.706659 -0.605344 6.68027 94 66 28
-2.33328 -0.488021 6.0872 172 107 84
-0.783419 -0.544011 6.33779 142 90 64
0.831267 -0.398977 5.94472 160 135 106
-0.912531 -0.367933 6.36177 52 14 6
1.75042 -0.303922 5.56687 158 119 94
-0.747579 -0.255695 6.66695 94 62 30
-1.84634 -0.0963101 5.95291 216 160 123
-2.58143 -0.00273178 6.36714 151 125 104
-1.34931 -0.00550731 6.12493 148 94 80
1.62568 0.058452 5.68959 166 135 116
-2.47887 0.206682 5.69568 168 138 117
1.30893 0.226427 5.87156 124 91 74
1.00057 0.268511 6.43186 144 116 96
1.59272 0.251887 6.13943 144 118 106
