ply
format ascii 1.0
element vertex 1316
property float x
property float y
property float z
property uchar red
property uchar green
property uchar blue
end_header
-1.44412 1.20576 3.79118 141 126 117
-1.70052 1.16578 3.50708 69 18 14
-1.81967 1.16223 3.41606 72 64 59
-1.94518 1.16804 3.45099 150 80 62
-1.88978 1.1885 3.40033 70 34 24
0.85923 -0.825703 4.34062 152 156 131
0.439865 0.163348 3.36561 20 27 20
0.653971 0.326341 2.84913 251 220 102
0.880619 0.584896 3.27822 73 78 72
-1.45215 0.829517 3.65396 145 82 62
-1.57197 0.803647 3.45962 98 68 47
-1.73993 0.812279 3.42093 197 136 116
-1.82003 0.816913 3.44446 204 149 129
-1.62874 0.782478 2.64823 148 157 148
-1.91121 0.961996 3.36383 68 27 17
-1.88362 0.971339 3.34872 160 134 118
-1.87255 1.01978 3.36697 109 61 52
-1.88636 1.04479 3.38409 154 140 129
-1.67456 1.10459 3.49398 34 25 23
-1.78003 1.12704 3.51807 135 86 73
-1.68817 1.15157 3.47062 70 15 8
-1.54678 1.17223 3.47245 78 53 52
-1.91611 1.19493 3.41622 94 80 74
0.931573 -0.795985 4.31184 114 112 84
0.512078 0.352746 3.35612 144 144 138
-1.76304 0.7332 3.73182 109 87 64
-1.45614 0.806354 3.66518 178 138 122
-1.58081 0.81146 3.47818 94 63 46
-1.57063 0.828371 3.40164 101 76 63
-1.93762 0.980565 3.36596 164 162 148
-1.65138 1.1101 3.46608 160 149 142
-1.76812 1.10498 3.44279 128 82 69
-1.68113 1.1571 3.52594 146 128 124
-1.54705 1.17133 3.46406 60 22 23
0.483998 0.354473 3.37014 147 148 146
0.707026 0.382718 3.03628 255 252 144
0.641465 0.401216 2.9813 227 194 70
0.631604 0.425118 3.02436 226 192 76
0.640256 0.48214 3.06493 155 120 46
-1.74526 0.797639 3.69357 127 94 83
-1.46339 0.841029 3.69006 167 119 102
0.77317 1.00346 3.49738 54 73 70
-1.44512 1.18678 3.7992 94 90 82
-1.58876 1.11052 3.4838 167 160 150
-1.72351 1.10563 3.4161 161 144 131
1.54127 -0.379439 3.55986 128 136 97
0.0864714 -0.344728 3.94143 110 114 84
0.403764 0.206949 3.42574 58 59 54
0.479769 0.351844 3.36365 111 112 110
0.667748 0.371189 2.99062 198 165 42
0.69634 0.441776 3.04206 184 150 41
0.983347 0.477384 3.32919 10 16 16
-1.75811 0.802825 3.49321 188 160 136
0.829119 1.04929 3.70299 54 74 72
-1.93369 1.03963 3.48313 160 119 101
-1.6654 1.04294 3.40668 115 112 104
-1.88651 1.04491 3.39164 151 149 138
0.702001 0.382576 3.02366 251 236 124
0.663216 0.439663 2.98873 124 92 14
0.623345 0.470112 3.01916 147 114 36
-1.57303 0.822551 3.40308 105 78 68
-1.98949 1.00505 3.4678 152 164 160
0.472136 0.304589 3.37123 15 19 19
0.695112 0.371673 3.01077 242 206 76
-1.65556 0.869495 3.38796 164 136 131
-1.86834 0.913526 3.348 170 171 166
0.776793 -0.756778 4.16236 170 178 144
0.745409 -0.716821 4.15602 71 87 34
0.747071 -0.694553 4.1035 156 168 125
0.911887 -0.641681 3.97791 196 200 165
0.907044 -0.625745 3.94871 123 128 88
1.55711 -0.375192 3.58012 122 126 92
-1.73394 0.751563 3.7884 89 80 76
-1.7092 0.864901 3.40785 170 135 128
-1.87347 1.13281 3.41326 176 146 133
-1.81791 1.16311 3.41447 42 24 22
-1.90748 1.20397 3.4382 42 21 13
-1.85582 1.22288 3.43166 84 78 66
0.757494 -0.722788 4.10644 138 148 106
0.704054 0.339993 3.00705 250 224 109
0.5314 0.49681 3.34286 46 47 40
0.506947 0.509213 3.31217 36 38 32
-1.73783 1.09657 3.42728 118 64 53
-1.85804 1.14924 3.41032 108 77 66
-1.85744 1.16499 3.41116 90 61 48
-1.87048 1.17349 3.40332 140 112 94
-1.89704 1.20215 3.43994 54 29 18
1.56245 -0.377605 3.58533 134 138 104
0.294033 -0.31471 4.07526 162 164 142
0.513881 0.348553 3.36234 128 129 121
-1.81662 1.0173 3.38577 144 102 88
-1.70836 1.04603 3.43811 34 14 12
-1.6017 1.09651 3.46995 56 52 50
-1.92665 1.12486 3.40594 166 151 142
-1.89336 1.13976 3.4545 170 141 123
-1.85991 1.15882 3.40979 100 52 37
-1.87231 1.17955 3.40956 148 132 114
-1.87539 1.19541 3.42111 136 132 120
0.21033 -0.641716 3.61371 94 103 56
1.92936 -0.70229 4.88988 88 106 56
0.704034 0.336427 3.01346 252 221 112
0.646617 0.395381 2.99497 226 194 70
0.670503 0.43039 2.98055 125 90 10
-1.75301 0.819338 3.40343 232 192 175
-1.59798 1.11205 3.48595 94 82 74
-1.92928 1.12811 3.41539 162 152 141
-1.88313 1.13328 3.41121 144 76 50
0.75679 -0.746326 4.18843 196 192 181
0.657883 0.431532 2.94138 120 85 12
0.663711 0.431957 2.86115 148 112 28
0.623698 0.449518 2.96298 166 134 38
-1.87512 1.01683 3.37384 118 58 42
0.439597 0.313943 3.39941 56 57 55
0.684758 0.438184 3.02595 122 88 10
0.483633 0.508196 3.3225 80 82 76
-1.8341 1.004 3.38987 62 34 24
0.440468 0.318268 3.42098 110 110 107
-1.64026 0.839706 3.70929 200 120 104
-1.65306 0.821307 3.43227 198 98 68
-1.88635 0.983416 3.37175 172 171 158
0.422935 0.393365 3.40525 8 8 6
-1.63688 0.740144 3.71671 148 94 62
-1.45989 0.828606 3.68447 149 78 58
-1.78262 0.785924 3.44463 133 86 52
-1.50061 0.781919 3.60637 180 104 98
-1.4516 0.838895 3.73101 182 158 140
-1.58303 0.832201 3.41454 96 72 56
-1.77731 0.817679 3.36397 194 128 106
-1.47984 1.05959 3.64591 166 162 156
0.583126 1.32452 3.71967 198 176 186
-1.81258 1.17926 3.47545 44 8 11
-1.45184 0.80645 3.717 123 70 52
-1.93989 1.04505 3.3975 134 128 122
-1.78738 1.07705 3.43268 55 52 49
-1.44777 1.18639 3.77432 85 78 68
-1.90463 1.05839 3.3678 72 29 18
-1.79642 0.775914 3.41566 164 141 124
-1.49066 1.07058 3.68248 166 162 155
-1.71502 1.05546 3.46357 34 10 6
-1.44329 1.18165 3.77877 84 76 65
0.425316 0.167398 3.4149 68 77 76
1.08708 0.316836 3.2917 16 34 33
-1.80255 0.775363 3.42361 160 138 119
-1.77432 0.824295 3.45112 218 145 125
-1.55917 0.891729 3.37999 66 24 24
-1.68535 1.04909 3.45352 120 92 84
-1.56516 1.10991 3.48128 21 27 24
-1.94897 1.11259 3.44409 141 132 128
0.516411 -0.730012 3.43128 83 98 56
0.783735 0.914259 3.49537 44 80 84
-1.57843 0.810885 3.44651 104 78 64
-1.74357 1.03886 3.40508 120 128 130
-1.57728 1.01266 3.41911 76 15 11
-1.69145 0.771049 3.66445 209 194 183
-1.62493 0.809138 3.36893 202 130 109
-1.726 0.871026 3.4447 116 64 62
-1.55879 0.890988 3.35506 64 18 17
0.471412 -0.76705 3.40749 134 149 106
0.482868 -0.761832 3.4133 78 88 48
0.753964 0.0201482 3.58235 24 48 0
0.570538 0.781116 3.46395 60 74 70
-1.42322 0.787909 3.59579 150 76 59
-1.45389 0.806038 3.65155 173 131 114
0.798246 0.893805 3.44676 46 82 84
-1.81678 0.85178 3.5849 205 158 141
-1.57431 0.825848 3.37565 119 94 77
-1.56215 0.829252 3.38134 90 68 53
0.730116 0.991203 3.51785 20 12 22
-1.71504 0.888576 3.47283 158 128 120
-1.65966 1.11944 3.54894 62 25 24
0.793022 -0.774631 4.13103 132 136 107
1.09369 -0.603062 3.56379 102 109 84
0.252238 -0.381752 3.24968 131 136 108
1.14864 0.113519 3.70253 150 141 134
0.893781 0.542129 2.9852 88 96 92
-1.508 0.73759 3.67594 160 121 102
-1.45005 0.84558 3.69378 149 102 91
-1.44592 0.961663 3.77828 56 112 118
-1.70776 0.874821 3.3911 137 31 21
-1.43896 1.04279 3.65944 194 184 174
-1.81654 1.09725 3.5259 38 32 30
-1.59825 1.09711 3.47711 38 30 28
0.672474 1.4617 4.25332 160 159 162
-1.68786 1.15372 3.52804 100 86 83
0.509106 0.351663 3.39243 68 69 65
-1.60946 0.78229 3.46222 157 71 60
0.336246 -0.846638 3.43198 70 86 30
0.488737 -0.759393 3.40959 132 138 102
0.912074 0.515991 3.34555 138 142 138
-1.43067 0.988775 3.78343 156 167 165
0.517941 0.508868 3.32048 46 50 45
0.999492 0.583786 3.34594 85 93 88
-1.44577 0.834383 3.70585 176 156 141
0.639771 1.28795 3.69305 199 166 174
0.436262 0.437483 3.41307 154 156 151
-1.44936 0.798561 3.67274 156 81 66
-1.51925 0.763917 3.16941 203 141 122
-1.56224 0.818212 3.3703 120 90 74
0.948971 -0.662788 4.07352 193 192 176
1.02043 -0.561178 3.77469 200 194 182
1.08946 0.283848 3.33887 12 34 35
0.984975 0.440692 3.30192 106 112 112
0.443156 0.448795 3.42363 154 156 150
0.792388 0.98264 3.5037 74 104 102
1.35606 -0.499956 3.70341 84 108 42
1.36662 -0.323708 3.45374 96 105 62
0.429135 0.346598 3.44239 82 83 82
0.658157 0.432911 2.97292 132 98 18
0.54683 0.796504 3.38389 120 138 136
0.390799 -0.816155 3.3843 135 148 98
0.400966 -0.80866 3.36534 108 118 79
0.793346 -0.777872 4.21115 108 118 80
0.812179 -0.863347 4.67956 118 126 90
0.784346 -0.762951 4.23908 141 140 121
0.8021 -0.757715 4.37732 178 183 154
1.00246 -0.655275 3.95445 117 124 81
0.944001 -0.588073 3.64446 166 172 142
0.48067 -0.495767 3.57287 116 123 94
0.685105 -0.468079 3.50317 56 85 4
0.359484 -0.379773 3.1409 152 164 131
0.243645 -0.368412 3.15457 180 180 162
0.991038 -0.343448 3.31363 170 182 144
1.0338 -0.280131 3.93886 140 160 99
0.641887 -0.00914158 3.68856 98 106 72
0.472323 0.0233188 3.75227 52 44 34
0.631323 0.0337978 3.6787 169 168 154
0.596075 0.0306217 3.88986 195 191 175
0.199212 0.0439272 3.73235 132 130 118
1.18215 0.118781 3.77597 102 90 71
1.19432 0.122247 3.86467 200 187 172
1.15905 0.166046 3.35473 191 183 170
1.35347 0.197881 3.8457 114 96 82
0.673731 0.380708 2.89573 254 239 124
0.679867 0.453033 2.9127 151 114 36
0.539169 0.513219 3.4164 22 24 16
0.571909 0.759874 3.43026 34 47 40
-1.67753 0.726528 3.74969 204 163 152
-1.64688 0.744953 3.7042 116 58 32
0.791381 0.910829 3.49206 14 48 50
-1.43374 0.853247 3.60764 166 154 140
-1.6523 0.818947 3.39503 186 112 90
0.82461 1.04365 3.69585 24 46 46
0.505594 1.21293 4.18212 96 133 137
-1.95336 0.957283 3.37417 54 48 40
-1.97455 0.982407 3.43334 69 60 48
-1.9579 0.986183 3.43692 168 149 138
-1.97345 1.01512 3.47866 174 130 124
0.60013 1.23828 3.86194 128 163 170
0.629725 1.3075 3.90632 170 188 192
-1.94893 1.08907 3.47683 32 21 12
-1.76254 1.11378 3.51662 104 50 37
-1.91906 1.12272 3.44594 158 114 100
-1.93007 1.12951 3.42326 172 155 144
-1.86389 1.15472 3.43604 108 72 59
-1.86391 1.17285 3.43739 92 64 52
0.78477 1.34281 3.60233 236 202 214
-1.93596 1.19044 3.46259 158 140 128
-1.87356 1.17642 3.41659 154 132 116
-1.95069 1.22506 3.5415 44 16 7
-1.90097 1.20978 3.46775 44 16 10
-1.96029 1.22507 3.52874 132 124 117
-1.93612 1.2039 3.42242 25 25 18
-1.9081 1.21057 3.4686 32 12 10
0.788378 1.45288 3.77569 241 208 98
0.629712 1.4271 3.64861 216 186 93
0.336066 -0.848485 3.43983 80 94 34
0.813508 -0.794763 4.30984 126 134 100
1.27171 -0.460358 3.13146 126 132 90
0.254072 -0.371239 3.08622 83 94 46
0.403109 -0.314435 3.39849 124 130 103
0.2874 -0.307966 3.99885 142 142 125
0.506285 0.02786 3.78444 166 158 148
1.09113 0.129476 3.59142 180 167 150
1.30808 0.169048 3.81219 193 190 182
1.22392 0.182321 3.46064 122 103 92
-1.74423 0.779144 3.37307 150 96 62
-1.94769 0.980109 3.40512 167 157 146
-1.88974 0.976913 3.36895 188 168 152
-1.97314 0.991189 3.40325 143 159 152
-1.89556 0.995387 3.37893 172 151 138
-1.92394 0.99849 3.36369 128 50 38
0.568539 1.23628 3.73067 160 193 194
-1.89438 1.04729 3.41205 173 152 141
-1.94547 1.0521 3.40876 138 134 124
0.567612 1.25943 3.65961 171 194 196
0.657502 1.26262 3.66134 140 112 109
-1.72889 1.10965 3.43501 154 136 125
0.664546 1.3325 3.83724 214 181 190
0.574476 1.33687 3.79857 166 162 176
-1.92138 1.1394 3.44127 135 68 49
-1.90041 1.13987 3.45271 159 84 63
-1.92998 1.1539 3.44825 156 76 52
-1.92212 1.17894 3.41658 144 112 100
0.665248 1.37508 3.65694 176 138 97
-1.93687 1.2078 3.4749 138 128 120
0.605797 1.34757 3.54409 250 224 141
0.639682 1.41809 3.71699 246 218 88
0.336343 -0.851686 3.46228 96 108 56
0.929418 -0.627451 3.99636 195 194 179
0.469415 -0.487922 3.50377 97 106 75
0.753655 -0.517518 3.85601 74 102 22
0.916095 -0.295383 3.59855 53 72 3
0.0772838 -0.34298 3.91219 124 124 104
0.681646 -0.174777 3.46005 26 51 0
0.762426 0.0227461 3.62665 30 49 2
0.550514 0.0421931 3.40595 152 154 134
0.571599 0.0312572 3.7733 192 189 178
0.501153 0.0506788 3.22969 52 53 22
0.210568 0.0496162 3.83599 119 118 106
1.12746 0.12102 3.67585 198 192 180
1.19788 0.136065 3.95361 182 171 156
1.1809 0.142624 3.79683 122 96 58
1.30135 0.16565 3.79117 192 192 186
1.26619 0.184015 3.59179 118 100 87
0.432707 0.510001 3.40741 24 26 20
0.636342 0.727085 3.2662 159 162 150
-1.47733 0.775633 3.89469 116 150 151
-1.45219 0.879443 3.68052 115 92 72
0.83922 1.05286 3.75429 32 58 56
-1.95675 0.959383 3.38607 49 41 34
0.587648 1.21093 3.76823 123 157 163
0.582861 1.24977 3.78851 146 176 178
0.637973 1.31551 3.94754 164 184 189
0.81522 1.37831 3.73123 222 186 199
-1.96425 1.19026 3.45911 94 118 120
0.572198 -0.717621 3.53015 134 140 105
0.870246 -0.827402 4.39141 140 148 108
0.759764 -0.62403 3.48376 170 174 146
0.737112 -0.727697 4.0787 189 186 174
0.992542 -0.664001 4.00579 164 166 134
1.02108 -0.612451 3.90687 106 121 74
1.13865 -0.610029 4.19732 194 190 175
1.03244 -0.361306 3.3901 85 94 61
0.241723 -0.367793 3.14902 184 184 168
0.515089 -0.377486 3.37454 148 160 121
0.378853 0.027014 3.53987 120 110 90
0.45416 0.0307777 3.74373 60 46 30
0.582031 0.0427343 3.72339 62 58 30
1.13564 0.110069 3.62538 144 136 122
1.16427 0.122589 3.80409 198 192 180
0.943921 0.119626 3.42938 88 70 48
1.25064 0.169173 3.70673 114 90 62
0.98458 0.434976 3.28483 149 154 150
0.622203 0.468343 2.9661 156 122 46
0.276921 0.721228 3.82372 169 180 176
-1.49099 0.725891 3.78888 150 168 167
-1.69481 0.675601 3.44412 191 128 111
-1.71722 0.779848 3.65216 131 96 80
-1.44183 0.829501 3.63487 138 74 56
-1.61901 0.802676 3.43955 154 96 72
0.768708 0.982665 3.4281 34 60 58
-1.42027 1.0108 3.77307 124 148 146
0.495655 1.20095 4.11521 98 132 136
0.681066 1.26255 3.8971 184 167 166
-1.87651 1.01956 3.38278 118 54 43
0.544438 1.19086 3.56921 140 172 174
-1.94601 1.0817 3.4526 63 34 28
0.595144 1.22879 3.45709 202 168 175
0.628285 1.32259 3.72525 190 156 172
0.676501 -0.866741 4.24331 82 90 48
0.533443 -0.676651 3.32995 96 107 64
0.889412 -0.532795 3.41534 48 76 14
1.28276 -0.465657 3.17601 120 126 84
0.34657 -0.385588 3.12412 183 182 170
0.248424 -0.360998 2.99383 82 94 42
0.277265 -0.386232 3.39886 186 184 174
0.206094 0.0537459 3.79512 116 115 104
0.927119 0.1066 3.63746 39 42 7
1.08254 0.12165 3.54572 198 192 180
0.891414 0.121428 3.22892 80 60 36
1.2124 0.166197 3.60922 130 102 72
1.28999 0.180725 3.70211 117 98 79
1.42825 0.281143 3.67086 112 108 54
0.693453 0.334022 2.98126 253 230 118
-1.46744 0.651385 3.33791 120 144 144
-1.55446 0.707964 3.73391 165 181 181
-1.48258 0.815769 3.7541 208 189 174
0.816139 0.9976 3.57696 46 77 79
0.599558 1.21887 3.79612 124 158 164
-1.94486 1.03914 3.39057 142 141 130
0.482782 1.12292 3.15136 154 176 178
0.498112 -0.771853 3.48544 71 82 34
0.914211 -0.635769 3.94412 196 191 174
1.27027 -0.467231 3.16227 136 141 108
1.21003 -0.437603 3.1186 85 108 33
0.242598 -0.355756 2.95711 83 95 44
0.269366 -0.383765 3.32134 188 186 177
0.565082 0.037718 3.67614 110 102 80
1.18854 0.117589 3.69853 144 120 92
0.945136 0.158936 3.20382 218 200 170
1.18929 0.177418 3.41451 128 102 80
0.424019 0.155505 3.30281 14 23 18
0.685274 0.337469 2.95435 252 224 112
0.807337 0.417953 3.45869 248 231 122
0.554259 0.426254 3.42264 130 129 122
0.983453 0.657494 3.62928 52 60 54
0.649149 0.743705 3.33793 156 159 147
0.566488 0.776563 3.46281 26 36 32
-1.78772 0.743766 3.78269 138 114 94
0.538427 0.847697 3.52717 8 18 18
-1.96756 0.934998 3.39157 136 158 158
-1.97422 1.0507 3.45111 138 134 126
1.33773 -0.846928 3.59691 113 116 80
0.808288 -0.783791 4.17764 92 108 50
0.284809 -0.386932 3.24959 82 96 40
0.273471 -0.349467 2.96538 61 87 16
0.222661 -0.340807 2.95188 189 186 176
0.132771 -0.327858 3.86807 81 94 43
0.585424 0.0353072 4.18662 91 76 63
0.952108 0.124519 3.44531 86 64 42
1.18464 0.13693 3.82288 122 98 60
1.0438 0.155759 3.09245 144 117 84
1.414 0.273496 3.64199 112 108 58
0.518289 0.384731 3.38572 154 155 149
1.12386 0.647185 4.27738 122 125 116
0.904108 0.617678 3.33397 46 54 48
0.654822 0.747126 3.38998 158 160 148
-1.52018 0.676254 3.43424 178 139 125
-1.93386 0.858989 3.80447 174 128 104
-1.44571 1.02153 3.82392 158 163 158
0.485868 1.21868 4.12762 104 131 134
0.759115 -0.743669 3.95288 110 125 70
0.970203 -0.688094 4.17978 202 194 184
0.103238 -0.270343 3.22201 80 96 44
0.629273 0.0328588 3.46702 36 58 4
0.741517 0.0692726 2.78445 162 162 141
0.923663 0.100793 3.66172 28 40 6
1.21518 0.11564 3.77647 139 118 95
0.496253 0.532232 3.36189 14 17 12
0.929764 0.582883 3.34511 145 151 144
-1.81133 0.805969 3.56026 144 84 52
0.678806 0.866635 3.18493 22 34 44
-1.96184 0.926545 3.37874 151 165 164
1.32843 -0.818047 3.54768 167 170 141
-1.88957 1.04029 3.39601 166 136 120
-1.79339 1.08228 3.44689 24 14 12
-1.91233 1.13563 3.43038 135 60 38
-1.95293 1.17764 3.46981 108 74 56
1.37143 -0.863235 3.66594 116 119 85
-1.60537 0.728243 3.87575 162 176 172
-1.29085 0.758221 1.99692 175 168 162
0.544897 0.485744 3.36 38 38 30
0.622872 1.27542 3.87175 129 156 161
0.0814318 -0.344559 3.93331 124 124 100
0.48062 0.0211343 3.81698 84 74 62
0.533054 0.51335 3.39052 28 30 23
-1.67304 0.855193 3.33904 122 90 87
0.604731 1.22305 3.80759 122 156 164
0.921659 -0.48749 3.41765 150 156 121
1.24862 0.119265 3.87064 139 112 78
0.277322 0.735172 3.93524 175 177 170
0.906819 -0.51061 3.40592 120 131 90
0.437137 -0.481651 3.84845 188 187 182
0.525325 0.0354474 3.71776 123 114 102
0.44228 0.156413 3.28075 34 42 36
0.675949 0.320083 3.10191 162 125 30
0.263678 0.720887 3.85292 178 183 176
-1.48509 0.771015 3.87103 194 188 183
0.0890995 -0.349047 3.93147 130 132 104
0.915628 1.18062 4.01234 61 69 42
-1.89694 0.960438 3.37893 46 18 16
0.234101 -0.644366 3.67208 74 92 32
0.289595 -0.615528 3.68845 48 80 9
0.489468 0.0146092 3.89477 172 167 157
1.07196 0.280585 3.26714 9 26 30
0.673123 0.264722 3.19705 152 130 96
0.452553 0.448001 3.45013 152 154 148
0.987645 0.599256 3.34594 71 81 76
0.464494 0.812922 3.51391 106 125 123
-1.95089 0.830635 3.4194 212 200 189
-1.40862 0.82046 3.60557 192 168 148
-1.45993 0.83291 3.66417 146 73 60
-1.48602 0.746447 3.86617 170 186 185
-1.7464 0.774157 3.35808 138 88 58
-1.65082 0.813627 3.39419 190 115 94
-1.4781 0.980691 3.88535 70 121 126
-1.46439 0.913989 3.67191 158 156 144
-1.78987 1.08182 3.44241 32 25 24
0.776201 0.944316 3.49046 76 118 114
-1.69903 0.850874 3.53163 192 116 90
-1.43605 0.90332 3.59562 154 156 146
-1.69747 0.785289 3.53886 142 112 96
-1.63001 0.788781 3.54207 203 80 69
-1.93526 0.927555 3.33737 156 166 166
-1.99442 0.716438 3.856 80 124 127
0.426162 -0.807494 3.42438 107 118 80
1.13816 -0.645282 4.0521 106 112 80
0.502043 -0.467681 3.52979 142 146 122
0.596092 0.0458415 3.52146 144 142 120
0.426878 -0.808957 3.42717 107 118 80
0.726451 -0.0531231 3.55071 62 84 22
1.20117 0.11003 3.83776 108 101 86
1.18696 0.120798 3.83426 182 170 154
1.34264 0.180736 3.85746 138 126 112
0.912832 -0.559915 3.57006 118 138 89
1.1991 0.112766 3.83575 106 96 80
1.15603 0.13319 3.97975 156 150 138
1.16363 0.134414 3.85375 176 164 148
0.946395 0.126751 3.6099 83 72 50
0.489361 -0.758994 3.42622 78 92 51
0.504232 -0.746238 3.4349 125 136 97
0.646642 -0.575439 3.2718 120 133 84
0.632509 0.0776066 3.5458 68 68 34
0.943861 0.124866 3.60521 84 72 50
1.15315 0.130604 3.82391 168 160 144
1.04814 0.146127 3.29558 63 38 20
0.439161 0.318494 3.39999 70 71 69
-1.64657 1.09185 3.47494 83 73 70
-1.69796 1.15671 3.52727 54 10 6
-1.68986 1.05081 3.44336 33 14 12
-1.54143 1.08282 3.42737 88 94 90
-1.65163 1.16836 3.50937 182 124 120
0.518003 -0.727826 3.41785 101 114 76
0.900726 0.505899 3.31234 130 135 131
0.444851 0.517366 3.41323 36 41 36
0.888533 0.603614 3.33552 134 140 134
0.922635 0.614313 3.36518 74 81 78
-1.66527 0.845869 3.50987 201 159 142
-1.56826 0.823202 3.40824 113 82 66
-1.71958 1.06037 3.51515 90 65 61
-1.54838 1.09981 3.4652 44 48 44
-1.69232 1.16981 3.52642 57 12 4
-1.64386 1.16184 3.48771 184 137 132
0.511337 -0.734324 3.43415 90 105 63
0.651445 -0.184104 1.48777 172 182 178
0.77023 0.0437784 3.58478 72 86 19
0.410616 0.194566 3.41078 6 11 8
-1.66861 0.833758 3.55727 188 139 124
-1.65423 0.842834 3.49228 203 144 124
-1.54562 1.17277 3.46286 60 29 28
0.9359 0.515891 3.32518 38 44 41
-1.58975 1.10716 3.47295 109 95 90
1.03274 0.438461 3.33841 76 82 78
1.01561 0.465781 3.33036 152 158 156
0.918825 0.592563 3.32543 144 152 144
0.982189 0.442912 3.30376 73 79 77
0.53686 0.850293 3.55763 15 26 24
0.565408 0.815938 3.45211 125 143 140
0.538338 0.858958 3.58601 22 34 32
0.651037 0.895445 3.50669 108 138 134
1.55333 -0.377106 3.56739 114 123 80
0.944338 0.125408 3.42165 70 58 33
0.700737 0.359194 2.64956 154 144 78
0.489037 0.524651 3.39198 112 117 112
-1.69506 0.867116 3.43131 51 16 12
-1.65499 1.11083 3.52194 146 140 132
-1.53979 1.10695 3.48175 108 112 105
-1.66417 1.14615 3.48417 144 124 116
-1.55225 1.29666 3.51147 51 26 20
0.319438 -0.838104 3.35656 128 132 98
0.63199 -0.609756 3.47946 102 115 67
1.10638 -0.120668 3.06314 124 132 93
0.490049 0.297544 3.35456 74 76 71
-1.65288 1.1139 3.52399 152 144 136
0.62894 0.465346 3.00474 152 118 44
-1.79914 1.02447 4.32546 142 118 108
-1.6808 1.10772 3.53759 26 16 12
-1.66853 1.12046 3.53997 146 141 131
0.497418 0.370465 3.37206 9 10 6
0.627997 0.472307 3.00521 151 116 44
0.499069 0.819801 3.47042 118 138 136
0.63958 0.391868 3.04405 190 152 71
-1.55855 1.10322 3.48447 14 20 14
0.690929 0.416025 2.98008 186 153 37
1.07942 0.289422 3.27752 20 42 43
1.32928 -0.830637 3.48002 124 124 100
1.3162 -0.826694 3.4846 74 86 44
1.32453 -0.811201 3.48353 172 174 148
1.19409 -0.749653 3.46582 56 71 37
0.9394 -0.743744 4.21392 158 164 138
0.945193 -0.708593 4.12789 128 132 106
0.880263 -0.299234 1.99084 128 142 102
0.419355 0.201767 3.33073 104 106 100
0.531714 0.3602 3.34489 47 45 40
0.645605 0.405651 2.99171 247 214 100
-1.87327 0.729523 3.78181 102 82 65
0.769181 0.784103 3.38963 167 170 160
-1.56516 0.800809 3.44685 105 80 65
-1.57104 0.808325 3.37627 204 168 152
-1.55106 0.88509 3.36828 55 23 22
1.16564 -0.725642 3.54113 122 131 105
0.538802 -0.708824 3.35042 148 158 129
0.943802 -0.653509 3.9739 188 194 166
1.08821 -0.452872 3.02898 186 194 160
0.985376 -0.319832 4.14341 54 82 10
0.987796 -0.293215 5.01791 62 88 20
1.22997 0.156161 3.40189 142 116 88
0.48247 0.416258 3.37865 40 42 38
0.767316 0.769545 3.33606 175 178 166
-1.69335 0.785647 3.60342 100 74 64
-1.59206 0.797621 3.43412 190 175 166
-1.58584 0.806724 3.47296 118 88 72
-1.56365 0.81741 3.36649 116 81 60
1.17492 -0.738162 3.52272 132 139 114
0.801783 -0.82092 4.63791 122 128 97
0.23355 -0.641685 3.63192 78 90 47
1.09033 -0.456446 3.04101 188 196 164
1.0053 -0.307385 5.36303 80 105 38
0.531358 0.35826 3.34229 80 78 73
0.538273 0.371964 3.3408 65 63 56
0.670071 0.362679 2.98406 249 223 106
1.02313 0.414142 3.31271 24 28 24
0.625885 0.444386 3.06776 234 204 80
0.631814 0.452614 3.02294 207 174 50
0.952199 0.512014 3.3217 28 33 31
0.526043 0.509458 3.3672 112 112 104
0.881098 0.566129 3.31385 12 17 13
-1.70852 0.789691 3.62341 112 82 73
-1.72213 0.801664 3.58445 142 120 108
-1.58591 0.795583 3.42886 192 176 165
-1.56512 0.818815 3.36511 124 89 66
-1.52266 1.09701 3.45636 132 138 132
1.09533 -0.446249 3.14242 192 196 176
1.09293 -0.431959 3.23863 145 161 112
0.514424 0.360807 3.36413 156 156 151
0.532695 0.36609 3.3525 101 99 94
0.495255 0.390753 3.38352 16 17 16
0.423793 0.475834 3.41689 56 58 52
0.43478 0.505022 3.41424 36 38 34
0.496994 0.531665 3.3711 13 16 12
0.767446 0.77527 3.35888 178 180 169
0.765794 0.817725 3.3961 46 66 49
-1.56299 0.818318 3.37597 113 77 56
-1.53069 0.877129 3.32549 56 14 14
-1.61899 1.10877 3.48187 80 46 46
-1.51787 1.09744 3.45132 132 138 132
1.3015 -0.820553 3.47122 58 79 26
1.12897 -0.656852 4.08223 191 192 172
1.28437 -0.283707 4.38573 138 147 109
0.499525 0.319827 3.36497 32 33 31
0.481231 0.349619 3.36455 116 120 118
0.461578 0.423139 3.38823 10 12 10
0.762413 0.773116 3.35519 174 176 164
0.758846 0.839682 3.44154 52 67 44
-1.55681 1.06812 3.38207 80 44 46
0.482924 0.345818 3.357 116 120 118
0.484145 0.376199 3.32926 10 14 16
0.984878 0.444021 3.31812 82 89 88
0.62108 0.450746 3.16898 226 200 98
0.880205 0.571846 3.32707 99 102 98
-1.5132 0.791217 3.6402 204 143 130
-1.51869 1.07747 3.41158 20 27 24
0.148014 -0.78057 4.56014 68 84 30
0.700534 0.379824 3.10372 251 234 114
0.755992 0.393204 3.16867 70 64 34
0.929781 0.506768 3.29876 12 16 14
0.918472 0.591753 3.34214 148 152 147
0.904186 0.624219 3.34866 46 53 48
0.748847 0.939256 3.51221 22 20 30
0.447866 0.468858 3.55733 85 88 86
0.911567 0.528798 3.29016 150 153 148
0.492714 0.530063 3.37447 16 20 14
0.761041 0.740376 3.21963 113 120 104
0.363083 -0.756479 3.14259 184 186 164
0.344337 -0.813137 3.45902 134 137 111
0.458125 -0.788786 3.44022 126 135 100
1.1772 -0.736233 3.44468 139 150 122
1.1695 -0.729017 3.48611 90 101 74
0.52071 -0.730169 3.39639 85 92 60
0.529664 -0.722233 3.42708 184 194 166
0.870298 -0.849368 4.51869 122 130 94
0.903165 -0.78836 4.23368 188 188 168
0.58645 -0.650476 3.38131 76 88 49
0.802931 -0.816644 4.45246 114 120 98
0.598853 -0.630752 3.42414 152 164 131
0.604087 -0.625424 3.43894 76 87 51
0.779221 -0.761391 4.34979 174 183 149
0.61368 -0.619364 3.52469 168 181 145
0.951475 -0.6633 4.02256 193 194 176
0.970543 -0.660468 3.95528 142 151 113
0.990755 -0.655666 3.94516 108 118 78
0.997673 -0.647284 3.91486 122 133 92
0.634333 -0.664426 3.9135 91 98 67
0.75218 -0.638689 4.16412 98 108 74
0.752647 -0.581897 3.82026 178 186 153
0.747032 -0.611097 4.14631 86 91 64
0.747553 -0.551575 4.06333 180 188 154
0.500027 -0.350088 3.06247 174 186 156
1.22057 -0.163906 3.17435 112 123 74
0.781316 0.0577154 3.83252 56 68 12
0.571144 0.0542924 3.41845 80 70 48
0.795789 0.0685127 3.62778 60 77 20
0.66259 0.0775187 3.3154 103 79 45
1.20845 0.115242 3.91854 114 107 96
1.23405 0.121114 3.84426 124 98 62
1.19684 0.124615 3.92193 175 165 151
1.12921 0.125844 3.74369 139 128 118
0.554848 0.098164 3.17055 208 185 132
1.17521 0.137334 3.9565 197 187 176
1.35003 0.180419 3.90776 142 128 116
1.15839 0.174587 3.38958 75 54 29
1.00043 0.170733 3.21399 241 218 170
0.527406 0.351979 3.35297 34 33 28
0.672715 0.334362 3.00992 236 203 83
0.95585 0.391628 3.28191 54 59 58
0.70233 0.376263 2.9749 253 234 113
0.636832 0.370856 2.88758 220 188 78
0.623396 0.413766 2.95625 184 146 44
0.424666 0.476753 3.40374 9 10 6
0.930287 0.518699 3.35805 51 54 54
0.749824 0.711479 3.17795 168 171 158
-1.74386 0.769559 4.0795 95 140 140
0.569082 0.772369 3.4592 19 34 30
0.465408 0.820908 3.52477 71 90 89
-1.81339 0.768681 3.66906 214 202 192
-1.60918 0.783813 3.46216 136 74 60
-1.72455 0.808482 3.58186 143 123 111
-1.60416 0.795593 3.41885 134 82 58
-1.54975 0.789243 3.38614 78 50 26
-1.58485 0.811474 3.42 155 108 88
-1.62066 0.8018 3.35724 190 108 88
-1.50667 0.922272 3.75125 138 119 102
-1.41495 0.898617 3.52062 120 120 110
0.589456 1.24033 3.80958 161 198 204
-1.53419 1.23517 4.02912 58 70 63
0.594274 1.15155 3.41583 138 168 178
-1.44658 1.19824 3.82151 117 123 117
-1.40113 1.16004 3.65127 72 62 53
-1.46486 1.21464 3.82217 152 128 116
-1.4872 1.22665 3.83712 106 96 85
-1.55032 1.28267 4.07018 78 54 44
-1.41355 1.23096 3.75642 111 104 100
-1.43322 1.22624 3.68326 158 152 134
-1.40737 1.22685 3.68521 93 45 36
-1.53156 1.29301 3.87113 106 97 72
-1.44524 1.26487 3.77217 100 93 86
-1.44365 1.28073 3.74214 20 43 46
0.473813 -0.754716 3.31056 149 162 125
0.786075 -0.787085 4.40565 128 134 108
0.780893 -0.754766 4.25857 178 186 154
0.607096 -0.973882 5.90433 138 148 110
0.756562 -0.638385 4.1752 82 94 56
0.742795 -0.598106 4.02367 134 138 113
1.06445 -0.527566 3.67718 118 136 93
0.747642 -0.579312 4.0465 162 171 138
0.687623 -0.466495 3.45503 48 68 6
0.750158 -0.50131 4.07627 94 102 69
0.721814 -0.415887 3.45277 138 150 113
0.732896 -0.423395 3.66428 182 193 150
0.738447 -0.428103 3.79469 161 174 134
0.500322 -0.347166 3.00536 178 188 160
0.652307 -0.220234 3.35584 24 48 0
1.21297 -0.150597 3.10052 102 117 58
0.881009 -0.172488 3.72927 87 104 34
0.654404 0.0873267 3.53929 100 76 44
1.2856 0.162091 3.72942 181 170 156
0.526192 0.348344 3.34376 34 33 28
0.674219 0.346514 2.91976 250 230 110
0.423044 0.478126 3.41568 9 10 6
0.435758 0.523789 3.48831 10 15 11
0.754924 0.725903 3.22489 171 172 162
-1.64371 0.775692 3.43607 140 118 108
-1.59291 0.788448 3.39258 159 113 92
-1.57164 0.796177 3.4301 95 66 41
-1.47428 0.856099 3.42902 205 196 186
-1.35223 0.877244 3.3658 85 85 74
-1.43556 0.923238 3.53819 93 94 83
-1.49724 1.08129 3.78882 200 190 180
0.587263 1.21381 3.71276 161 198 204
0.626168 1.28301 3.86554 141 153 155
-1.51155 1.24227 3.97505 108 120 110
-1.43396 1.19965 3.76134 155 132 120
-1.44301 1.24713 3.82069 115 106 100
-1.51032 1.29334 3.90747 98 46 38
1.17812 -0.736238 3.44416 139 150 122
0.499676 -0.746962 3.4146 130 142 108
0.92814 -0.808263 4.42442 116 120 94
0.592728 -0.713851 3.90907 135 142 112
0.613827 -0.633777 3.4182 168 181 145
0.993344 -0.664463 3.99009 108 118 78
0.636535 -0.644515 3.80357 75 87 42
0.753626 -0.657422 4.10965 96 100 78
1.05455 -0.531991 3.56635 74 94 50
0.747688 -0.601461 4.0724 96 103 71
0.492805 -0.35837 3.10112 186 190 174
0.947902 0.131912 3.37045 49 30 17
0.51767 0.328185 3.31773 36 36 32
0.640889 0.370781 3.01995 165 124 26
0.707172 0.368623 2.96655 254 246 147
1.03808 0.433528 3.34934 66 72 68
0.638226 0.388813 2.98693 234 204 102
0.422977 0.47701 3.42049 9 10 6
0.531266 0.52417 3.36311 148 152 145
0.519691 0.534287 3.33287 49 54 50
-1.48108 0.785956 3.44598 194 80 70
-1.56067 0.799757 3.41691 79 48 29
-1.47139 0.854726 3.63327 150 83 72
0.809125 0.99302 3.54878 16 48 50
-1.39895 0.892249 3.46801 86 84 73
0.931121 1.24215 4.08574 94 146 153
-1.43662 1.24611 3.67603 163 152 132
-1.49461 1.31023 3.85392 28 49 49
0.520746 -0.759086 3.6301 120 130 93
0.864778 -0.842097 4.4902 116 126 86
0.835882 -0.824166 4.40505 100 114 72
0.573596 -0.708353 3.72405 72 84 46
0.763527 -0.72546 4.21487 126 126 106
0.61637 -0.651577 3.81204 82 98 53
0.793059 0.0597611 3.65697 69 82 18
0.679294 0.0768958 3.40455 126 108 72
0.524602 0.347113 3.27191 40 39 34
0.635236 0.398565 3.013 242 212 110
0.995332 0.431409 3.31766 108 112 113
0.631426 0.421901 2.97558 240 213 94
0.545873 0.48244 3.31032 113 114 106
0.501737 0.532414 3.39121 71 77 74
0.892243 0.584607 3.36525 8 14 10
-1.77903 0.876981 4.44955 191 188 185
0.767028 0.804066 3.35752 56 74 58
-1.63671 0.763011 3.52819 202 183 176
-1.6019 0.779438 3.45969 167 75 64
-1.5622 0.926084 3.82551 126 70 61
-1.38777 0.876602 3.48388 166 163 155
0.808881 1.00223 3.57871 16 48 50
0.486267 -0.762544 3.43145 64 80 36
0.506616 -0.72218 3.28707 119 132 94
0.543647 -0.701631 3.38034 55 70 24
0.859098 -0.838107 4.43411 138 146 112
0.880426 -0.839205 4.51452 93 110 54
0.923432 -0.81426 4.45945 150 153 130
0.616105 -0.670476 3.9917 65 86 34
0.632032 -0.66574 4.06604 78 100 44
0.989193 -0.545468 3.5348 133 143 104
1.14028 -0.519551 3.47533 130 146 98
0.727487 -0.496946 4.01053 189 190 168
1.1756 0.138019 3.78096 112 90 60
1.39264 0.270726 3.51598 124 112 60
0.708337 0.253539 3.14403 150 123 86
0.806454 0.329179 3.18886 110 92 50
0.639867 0.321724 2.97631 140 104 19
0.532068 0.360113 3.33236 42 41 37
0.701253 0.381754 3.05832 250 231 116
0.690557 0.41128 2.93298 179 146 29
0.625948 0.42903 3.06062 213 178 68
0.669064 0.419659 2.93717 131 98 12
0.425242 0.459038 3.2669 121 120 117
0.632311 0.440774 2.9431 200 167 53
0.923968 0.506481 3.31042 8 12 12
0.880562 0.563516 3.2692 38 42 38
0.988212 0.59529 3.36272 78 88 84
0.536458 0.803029 3.42169 120 140 138
-1.34581 0.818499 3.34936 138 84 72
0.914375 1.22224 3.94586 162 158 158
-1.4494 1.04439 3.57711 162 160 152
-1.47495 1.08091 3.67983 188 181 172
-1.49184 1.20352 3.91685 73 78 70
-1.47322 1.20301 3.81838 68 53 42
0.984735 -0.650262 3.95653 84 106 35
1.20663 -0.58146 3.9469 136 149 108
1.04011 -0.502264 3.51582 149 158 118
0.737033 -0.444123 3.97073 123 140 88
0.490094 -0.350499 3.02595 184 184 175
0.874739 -0.173642 3.64518 91 108 37
0.782196 0.0464369 3.53068 73 84 17
1.06747 0.274463 3.22583 6 17 20
0.702308 0.329231 2.94634 237 205 81
0.65988 0.349587 2.99868 255 249 171
1.01436 0.413583 3.31628 23 28 27
0.46007 0.41405 3.34538 8 12 11
0.505259 0.525176 3.30582 6 12 8
0.908733 0.624236 3.34822 36 45 40
0.556498 0.789727 3.48379 12 28 27
0.672685 0.835408 3.37792 48 58 48
0.783207 0.945438 3.50059 78 118 120
0.806499 0.998801 3.56887 14 42 44
0.454411 1.2132 4.02669 80 122 132
0.823306 -0.811586 4.26551 166 170 146
0.860732 -0.843316 4.5204 92 108 58
0.940814 -0.673396 4.02497 157 162 131
0.777299 0.0395965 3.45905 71 83 16
1.35244 0.20732 3.91908 76 46 36
0.686255 0.284604 2.93988 168 130 31
0.706914 0.345149 3.06098 242 214 98
0.65697 0.352944 3.0553 229 212 114
0.808903 0.407042 3.39799 148 152 142
1.02878 0.432984 3.29279 53 58 54
0.446639 0.452759 3.43377 157 160 154
0.497478 0.543308 3.47941 41 47 44
0.872434 0.559789 3.29618 126 128 124
1.0394 0.590631 3.4062 142 150 144
0.765728 0.78676 3.45547 168 173 163
0.550386 0.846632 3.59989 120 139 138
0.754044 0.846657 3.4915 46 58 38
-1.56001 0.998971 3.87223 162 165 162
0.465846 1.16831 3.81702 92 122 130
0.907273 1.20216 3.85477 176 158 154
0.858197 -0.855811 4.55868 147 156 122
0.238124 -0.641317 3.64942 62 81 28
0.481407 -0.360859 2.97763 188 180 178
0.975788 -0.162526 2.30389 173 180 158
0.479795 0.348532 3.35418 82 85 84
0.439193 0.413907 3.47965 10 12 14
0.869511 0.546948 3.20092 110 112 108
1.02564 0.606384 3.34801 48 58 56
0.911301 0.615763 3.34596 14 21 18
0.548193 0.777884 3.45303 105 120 118
-1.47006 0.870495 3.70637 132 113 99
1.33414 -0.637717 4.54538 191 195 172
0.745032 0.123044 3.51098 236 223 207
0.75579 1.0337 3.55889 64 93 94
-1.69055 1.12572 3.58378 128 116 110
1.09333 -0.247948 3.58832 182 186 161
1.07822 0.14564 3.80912 71 48 28
1.30722 0.175354 3.88184 162 143 116
-1.4879 1.09298 3.50558 85 95 88
-1.65295 1.11917 3.56402 92 53 46
1.33928 -0.640437 4.5745 186 190 164
1.08404 -0.235991 3.53816 200 198 182
1.20657 -0.150873 3.08051 108 120 63
1.43792 0.26959 3.63704 166 148 110
1.40065 0.27621 3.56472 110 108 58
0.564041 -0.730077 3.60159 148 154 124
1.35298 0.188507 3.89842 134 121 108
0.938462 0.514255 3.31976 35 40 36
-1.60042 0.723069 3.7353 120 92 70
-1.48745 0.733547 3.59691 161 118 102
-1.56735 1.01485 3.42063 44 12 9
-1.56696 1.13545 3.63303 114 118 112
0.580147 1.2515 3.77492 138 171 177
1.07573 -0.2343 3.49266 186 186 168
1.34637 0.184795 3.84371 108 92 80
1.20809 0.117412 3.80064 129 112 86
1.22013 0.120107 3.75706 134 114 80
0.406861 0.507214 3.38067 62 64 57
0.496505 0.79956 3.43244 26 40 40
1.14928 0.15079 3.77659 86 60 38
1.02636 0.612945 3.39229 36 46 43
-1.46954 0.743936 3.74519 212 198 188
-1.45099 0.816007 3.65072 182 120 104
1.06536 0.129974 3.50082 102 85 64
0.224683 -0.646141 3.62235 100 114 72
-1.68911 1.15045 3.57392 128 112 102
0.499004 0.54114 3.64036 28 32 28
-1.67277 1.16552 3.56303 186 157 151
0.999469 0.602897 3.36915 25 36 32
-1.68331 1.15403 3.57501 171 150 142
-1.66725 1.1622 3.55304 192 164 158
0.746432 0.459124 2.93854 138 139 130
-1.66341 1.16306 3.54146 184 142 138
0.444439 0.509862 3.46311 84 86 81
1.16919 0.11824 3.82705 192 184 174
0.401895 0.199625 3.40342 81 86 80
0.961731 0.397153 3.29198 9 16 16
1.28928 -0.826033 3.52022 158 166 134
1.27491 -0.820441 3.50786 134 137 115
1.29969 -0.767489 3.68687 150 152 132
1.27497 -0.740227 3.52886 166 170 144
1.13085 -0.677611 3.35001 144 154 130
1.22043 -0.651905 3.63895 146 150 126
0.78613 -0.783683 4.41753 121 128 96
0.203692 -0.637704 3.59483 144 140 128
0.764809 -0.777462 4.81639 117 120 97
0.765853 -0.718419 4.34212 138 150 112
0.762509 -0.808528 5.26004 184 192 162
1.25221 -0.656103 4.5651 192 194 166
0.751559 -0.572943 4.13431 104 111 76
0.689183 -0.468032 3.48941 45 70 1
1.17459 -0.390489 3.2828 124 129 97
0.750856 -0.560697 4.46112 132 140 100
1.16341 -0.376055 3.32389 62 74 40
0.742183 -0.403845 3.51804 130 138 102
0.943193 -0.281484 3.30516 72 98 38
0.926648 -0.25088 3.57952 74 98 32
1.11191 -0.263731 3.6977 193 198 173
0.927963 -0.236579 3.69488 52 78 18
1.075 -0.0867729 3.22885 72 79 52
1.0596 -0.0598944 3.39027 84 88 67
1.05875 -0.0490707 3.56928 88 96 75
1.01104 0.100742 4.33284 194 196 179
0.916346 0.137018 3.5253 42 40 11
0.929793 0.105164 2.69034 54 34 17
1.29363 0.157415 3.82094 162 148 124
1.38332 0.201047 3.94805 107 92 84
1.07456 0.200382 3.58031 246 224 174
1.35829 0.213841 3.77768 74 52 38
0.702491 0.374805 3.00589 254 246 143
0.954642 0.512424 3.30038 84 91 88
0.404849 0.509136 3.3652 32 34 28
0.630158 1.19243 3.50261 120 129 132
0.835675 1.29427 3.41748 215 184 188
0.800368 -0.780922 4.22388 165 172 148
0.90469 -0.544752 3.422 48 78 10
1.18617 -0.400441 3.3485 86 94 62
1.07312 -0.0953182 2.95204 168 172 148
0.73538 0.127469 3.28838 236 216 185
1.06444 0.144202 3.45785 40 25 12
0.6657 0.36112 3.00458 248 220 93
0.546434 0.407663 3.32223 28 28 22
0.695499 0.378591 2.85909 236 203 72
0.555314 0.417491 3.18301 21 18 10
0.633428 0.388758 2.66014 250 224 106
0.59556 0.344577 2.05099 21 22 17
0.544789 0.482346 3.26315 32 34 25
0.51392 0.538313 3.53992 28 30 25
0.524163 0.528209 3.36954 137 141 134
0.524344 0.535774 3.35515 32 36 30
0.997865 0.596697 3.3526 18 25 22
-1.47703 0.710797 3.41928 151 84 58
-1.47136 0.772565 3.53115 162 80 72
-1.47464 0.822958 3.61031 163 130 116
-1.49075 0.856696 3.74117 131 65 50
-1.48042 0.878491 3.79801 112 108 94
-1.41348 1.03542 3.55377 136 128 118
-1.32499 1.11161 3.55156 46 56 48
0.687637 1.13362 3.33763 216 191 188
0.660662 1.19886 3.39852 148 120 118
0.663755 1.23694 3.48167 224 198 196
0.664636 1.22258 3.30598 228 202 199
-1.41993 1.29281 3.64065 132 148 148
1.04884 -0.507088 3.53317 116 137 88
1.04037 -0.557642 4.03697 190 193 167
0.494828 -0.487724 3.60022 134 142 118
1.19014 -0.402706 3.26194 147 152 126
0.749811 -0.450378 3.82559 82 98 44
0.957553 -0.314464 3.18354 51 72 8
1.18436 -0.174721 3.11079 184 190 174
1.05722 -0.0885913 2.9193 66 74 45
1.08409 -0.0554575 3.88287 62 70 46
1.1575 0.167972 3.32794 58 37 17
1.21374 0.18222 3.57221 69 50 32
1.25914 0.190574 3.56745 70 41 22
0.416723 0.349195 3.6228 12 12 10
0.706741 0.327867 2.88085 254 241 128
0.498907 0.361114 3.32668 10 10 8
0.754007 0.415608 3.15675 57 61 26
0.563877 0.423578 2.96396 16 15 11
-1.37224 0.833736 3.47118 179 170 162
-1.52591 0.904984 3.73798 120 83 78
-1.35254 0.86633 3.4041 168 167 154
0.676033 1.21786 3.6791 210 186 184
-1.37821 1.18991 3.55379 112 99 84
0.66443 1.2595 3.4317 226 200 196
1.18024 -0.741477 3.46471 184 190 168
0.809139 -0.820718 4.49244 112 121 94
1.19499 -0.407343 3.3118 147 152 126
1.53941 -0.371357 3.49275 106 110 76
1.06902 -0.0687039 3.52556 54 64 36
1.08444 0.14666 3.12591 77 56 38
1.21292 0.180695 3.59955 62 46 29
1.41435 0.283686 3.62713 113 108 58
0.689947 0.43682 3.03065 170 134 34
0.518648 0.527882 3.44785 62 64 60
-1.59324 0.756824 3.48828 233 178 166
-1.49887 0.824191 3.73833 220 188 174
-1.3017 0.854252 3.26116 86 86 74
-1.45732 1.01083 3.64433 88 91 80
0.676572 1.23216 3.73831 208 186 184
0.661936 1.2064 3.42266 140 112 112
0.660629 1.23036 3.4374 220 196 193
1.05931 -0.552449 3.6828 195 194 184
1.04113 -0.558709 3.97378 191 188 172
0.881843 -0.176244 3.73 84 106 36
1.16676 0.164298 3.34747 64 45 24
0.516222 0.361361 3.29808 162 164 158
0.673086 0.304476 2.53013 255 242 142
0.490597 0.396337 3.4631 12 13 12
0.56485 0.759909 3.34626 12 23 22
-1.30645 0.939548 3.31147 112 121 112
-1.32294 0.987249 3.3439 131 124 114
1.02747 -0.465169 3.47217 54 81 20
1.25298 0.186071 3.41468 74 47 30
0.489408 0.30142 3.34128 4 6 5
0.803998 0.395423 3.25375 118 124 104
0.69912 0.346916 2.63098 246 220 84
0.67739 0.344319 2.41362 174 140 34
0.44331 0.444277 3.38489 159 160 153
0.666842 0.415999 2.9352 148 114 15
-1.53964 0.718853 3.47723 110 48 24
-1.41728 0.75078 3.43724 208 140 132
-1.2662 0.787242 3.22174 178 164 156
-1.31624 0.821257 3.40748 108 88 67
-1.29814 0.856826 3.24507 102 104 93
-1.29512 0.904164 3.29641 152 158 154
-1.32693 1.01185 3.35766 190 184 174
0.606314 -0.632824 3.48811 119 125 98
0.922447 -0.5488 3.58817 37 68 7
1.25038 -0.467544 3.18108 104 115 66
1.18014 -0.46863 3.24176 196 192 181
0.709676 0.25077 3.08711 151 126 90
1.07836 0.300692 3.25633 50 66 65
0.794858 0.327001 3.18201 98 78 34
0.432639 0.42175 3.47209 12 14 15
0.629306 0.394961 2.94319 206 171 52
0.901804 0.532243 3.76116 70 76 72
0.4645 0.560918 3.89426 156 159 152
0.547502 0.771464 3.37553 14 26 24
0.505938 0.800724 3.22999 122 145 142
-1.48238 0.8861 3.75778 108 88 64
0.988793 -0.637223 3.89662 75 101 24
1.17033 -0.415991 2.9143 68 98 22
1.18776 0.171232 3.52315 64 48 30
0.438921 0.320514 3.14101 130 130 126
0.664116 0.313176 2.69744 242 219 106
0.622457 0.459093 3.13298 201 168 52
0.419052 0.51501 3.51383 91 94 90
0.676671 0.716259 2.76359 70 74 64
0.743591 0.857818 3.55481 48 50 28
0.580942 0.93055 3.51465 6 8 12
0.73891 0.932684 3.50075 14 29 38
0.50795 -0.73028 3.39187 123 136 95
0.223587 -0.648111 3.68337 126 128 104
0.9662 -0.676985 4.21851 144 155 102
0.125354 -0.49313 2.673 105 115 78
0.954693 -0.642257 4.12138 184 190 157
1.01691 0.44509 3.32144 134 142 136
-1.63492 0.711296 3.79224 200 186 176
-1.77926 0.742465 3.78771 110 90 64
-1.58797 0.818895 3.41364 196 170 150
-1.69728 0.867795 3.36239 96 10 4
-1.88257 1.13807 3.40617 148 78 59
0.542589 -0.683848 3.38697 134 150 106
0.970733 -0.712978 4.27356 163 170 129
0.971356 -0.696649 4.24995 132 136 102
0.927256 -0.462465 3.31227 119 126 92
0.947206 -0.429473 3.43238 156 165 124
1.01719 0.417582 3.31754 24 32 27
-1.65997 0.745087 3.72501 142 98 78
-1.49476 0.7859 3.50946 176 76 62
-1.72406 0.818025 3.66598 102 52 44
-1.75378 0.802173 3.46636 229 204 187
-1.79433 0.807717 3.38682 221 164 142
-1.95255 1.05427 3.40958 138 122 112
-1.90652 1.11423 3.39313 160 112 95
0.941904 -0.431677 3.40138 191 195 168
1.18026 -0.230099 3.71993 167 170 152
-1.52258 0.73899 3.71985 138 90 72
-1.77959 0.791764 3.46713 142 98 59
-1.59626 0.8229 3.40506 204 175 156
-1.62774 0.822749 3.37994 184 105 80
-1.69155 0.849566 3.38982 108 82 76
-1.69788 0.875213 3.39474 86 9 6
-1.87755 1.02446 3.38221 112 66 56
-1.72588 1.02963 3.38708 114 114 111
-1.94126 1.04306 3.37697 142 124 114
0.0798648 -0.346819 3.88409 114 116 94
1.14297 -0.247125 3.6598 156 167 132
-1.70885 0.801449 3.61957 114 65 56
-1.71887 0.807737 3.59907 71 37 31
-1.56627 0.820629 3.39216 86 56 46
-1.56182 1.00735 3.39684 49 18 13
-1.94741 1.04602 3.39152 142 121 112
0.231976 -0.645023 3.7 98 108 67
0.979338 -0.655245 3.98165 125 132 90
0.267391 -0.625448 3.68756 66 84 21
0.529031 -0.486147 4.43539 134 141 114
-1.65893 0.753365 3.74088 149 94 72
-1.71689 0.800023 3.58571 65 29 22
-1.82185 0.783078 3.4722 168 142 120
-1.62936 0.822052 3.3859 198 107 78
-1.72031 0.863629 3.41626 200 178 168
-1.8399 1.01644 3.41848 78 44 38
-1.77971 0.819139 3.39853 214 124 96
-1.61785 0.850914 3.46517 192 172 162
-1.56222 0.893976 3.37244 55 7 10
-1.52619 0.805373 3.60938 208 74 54
0.343996 -0.83367 3.43451 68 89 23
-1.73112 0.805034 3.63199 101 70 60
-1.64958 0.86418 4.03089 189 153 134
-1.79034 0.807043 3.42114 206 123 98
0.772396 -0.536084 3.84515 72 100 19
0.810266 -0.501834 3.91137 66 88 6
0.780001 -0.437795 3.77586 80 102 21
0.757738 -0.0208701 4.1364 122 130 100
-1.74022 0.803861 3.49123 142 114 83
-1.61382 0.800641 3.43198 144 78 54
-1.58898 0.836982 3.45449 162 135 116
-1.8671 0.969505 3.35389 88 74 55
-2.05169 1.35634 4.83146 128 105 96
-1.88332 1.154 3.44258 143 91 74
0.490702 -0.517879 3.68873 142 150 119
0.797694 -0.502564 3.86695 60 84 2
0.708958 -0.0676665 4.02165 144 150 123
0.687798 0.35824 2.94986 255 250 138
0.981456 0.466584 3.2965 10 18 16
-1.86542 0.728078 3.80584 126 105 87
-1.72077 0.741881 3.85076 146 160 156
-1.52794 0.749563 3.78443 156 125 108
-1.73733 0.802783 3.6258 93 62 50
-1.45473 0.821616 3.66856 149 100 82
-1.73996 0.800944 3.48491 140 110 80
-1.94008 0.980099 3.38341 170 152 139
-1.67435 1.15124 3.48762 134 112 106
0.655283 -0.077931 3.83894 112 118 85
0.752063 -0.0287027 4.12176 70 80 42
0.653176 0.405248 2.97909 233 210 94
0.99009 0.470469 3.31519 14 22 20
0.901839 0.616415 3.32554 51 62 49
-1.62925 0.783932 3.51668 195 80 58
-1.71119 0.817221 3.54714 91 52 38
-1.62281 0.804339 3.4651 153 104 84
-1.73861 0.812141 3.42477 190 138 118
-1.80715 0.814322 3.41167 196 149 130
-1.95303 0.9537 3.36268 100 108 103
-1.95144 1.08729 3.45175 60 30 24
-1.66148 1.10986 3.48719 118 107 102
1.02984 -0.46469 3.55488 102 108 77
0.744822 -0.483859 3.70134 64 90 9
0.656836 0.350615 2.87484 255 248 143
0.660737 0.411943 2.99806 240 218 112
0.637826 0.425284 2.99279 239 204 80
0.912428 0.598341 3.30297 100 108 101
-1.65809 0.751615 3.73922 124 62 36
-1.74388 0.7788 3.78564 96 58 51
-1.80735 0.803128 3.4667 220 192 178
-1.74448 0.820526 3.44698 194 138 115
-1.88385 1.03079 3.40679 112 58 44
1.00452 -0.798255 4.50408 172 172 147
0.93287 -0.616628 4.03026 186 188 165
1.00572 -0.317467 3.43302 154 154 127
-1.78536 0.755001 3.87522 186 164 146
-1.82862 0.886906 3.34526 46 16 16
0.718943 0.339966 3.15686 192 153 41
-1.57903 0.811494 3.43896 134 106 90
-1.78556 0.790259 3.44947 128 83 48
0.936763 -0.532807 3.50735 50 75 17
0.563817 -0.252348 2.65704 110 116 68
-1.75895 0.818794 3.36423 194 118 92
-1.65665 1.09492 3.43923 62 52 50
0.23335 -0.376733 3.09434 132 138 108
0.745179 -0.460024 4.22612 124 134 100
-1.5801 1.02979 3.39391 170 156 145
0.247414 -0.371647 3.11375 90 106 54
0.232813 -0.358086 3.10777 145 146 134
0.963538 -0.653197 4.1745 148 156 114
0.965619 -0.661682 4.16729 172 174 153
1.03285 -0.467456 3.5626 76 90 45
0.590049 0.0631999 3.4374 96 92 65
1.29165 0.196233 3.82545 86 62 46
1.13496 0.163176 3.3383 124 100 74
-1.5936 0.715941 3.72081 112 76 51
-1.84335 0.714874 3.76474 188 168 154
-1.65839 0.75231 3.7371 154 100 75
1.06213 -0.530731 3.56604 84 100 58
1.05266 -0.507462 3.55676 120 133 91
0.580597 0.0614512 3.43962 105 101 80
-1.60069 0.724944 3.59322 131 78 52
0.564687 0.0538455 3.5058 36 33 11
1.14446 0.111653 3.69381 154 145 133
-1.58209 0.694632 3.67984 131 148 140
0.632225 0.0691385 3.58932 54 51 28
0.438702 -0.709616 3.62106 160 161 132
0.438849 -0.69307 3.60274 136 136 110
0.49351 -0.484132 3.58532 148 158 126
0.247826 -0.391044 3.215 126 130 102
-1.45563 0.795062 3.75072 177 172 164
-1.44593 0.81173 3.60877 162 107 92
-1.4489 1.07083 3.65784 188 184 172
-1.94703 1.008 3.36136 122 82 72
0.443667 -0.430808 3.69197 159 170 136
0.257613 -0.393211 3.25052 120 126 94
0.556235 -0.400693 3.61859 156 166 130
1.23059 -0.240926 3.81841 178 177 156
0.588363 0.0220998 3.8673 184 184 170
0.656218 0.0245075 3.72241 124 128 100
1.00896 0.117118 3.59187 143 133 120
1.1452 0.128977 3.84307 151 140 126
0.987253 0.59667 3.35493 72 81 76
1.03589 0.613386 3.38739 58 69 64
-1.62547 0.807712 3.47874 146 86 62
-1.71518 0.824095 3.55688 94 61 49
-1.74168 0.816306 3.4494 192 142 124
-1.87058 1.00782 3.36252 104 64 58
-1.94565 1.05816 3.36992 90 40 42
0.450812 -0.774877 3.37066 148 152 126
0.469929 -0.508816 3.59543 154 161 133
0.241622 -0.388804 3.17379 119 124 92
0.201148 -0.378172 3.13938 160 157 146
0.105502 -0.18177 1.17392 194 192 174
2.20153 -0.417624 7.05438 176 176 157
-1.73102 0.751401 3.87689 178 186 180
-1.63394 0.756962 3.76158 162 100 76
-1.75112 0.783294 3.81706 104 66 62
-1.44671 0.815663 3.62141 164 107 92
-1.46136 0.847636 3.80436 154 160 152
-1.69551 0.794461 3.56031 112 65 54
0.451846 -0.439968 3.74829 178 182 160
0.595106 0.0528081 3.7317 38 40 8
0.941978 0.0969975 3.59082 194 190 176
0.996874 0.112352 3.53498 174 166 155
-1.6429 0.79384 3.58363 192 80 64
-1.47302 0.838947 3.76093 159 98 80
-1.73251 0.803951 3.56201 211 190 180
-1.56287 0.799954 3.42168 90 55 34
0.996356 -0.546966 3.68203 126 138 100
0.349023 -0.410443 3.56704 88 101 47
0.960897 0.158779 3.25897 213 196 167
-1.47837 0.804546 3.78949 182 143 130
-1.61818 0.810369 3.50238 193 171 154
-1.57986 0.830346 3.46788 76 46 40
0.233979 -0.641937 3.70516 96 105 59
0.458721 -0.452912 3.84364 192 188 178
1.10552 -0.369734 3.69753 197 200 178
0.575958 0.0395572 4.07301 52 36 24
0.874349 0.0985075 3.52345 26 38 6
0.666552 0.29696 3.0097 164 125 28
-1.63799 0.7845 3.57471 200 86 70
-1.51301 0.798722 3.56384 199 80 62
-1.79002 0.767626 3.34361 192 170 154
-1.62753 0.815828 3.56821 194 171 154
-1.56175 0.809697 3.53039 190 174 162
0.428504 -0.447974 3.74625 192 188 181
0.695683 0.333996 3.01296 237 204 83
-1.5912 0.70556 3.72186 127 140 129
-1.73252 0.77062 3.90449 200 189 182
-1.7526 0.790334 3.75687 149 120 106
0.47023 -0.67451 3.15378 98 105 62
0.742912 0.114911 3.23548 215 203 188
-1.70536 0.852658 4.68946 134 156 154
-1.9845 0.723831 3.85767 137 153 154
0.326586 -0.828551 3.31891 132 140 102
0.250435 -0.639627 3.78302 160 160 142
0.286381 -0.584432 3.43446 90 104 64
0.364846 -0.591044 3.61009 148 157 124
1.1046 -0.4192 3.94298 182 182 155
1.01714 -0.369945 3.63824 138 146 115
1.09746 -0.364271 4.01118 188 194 159
