ply
format ascii 1.0
element vertex 1326
property float x
property float y
property float z
property uchar red
property uchar green
property uchar blue
end_header
2.11766 0.00274028 7.22408 89 50 24
-0.594918 0.142222 6.49874 156 110 112
0.633782 0.560334 7.06343 110 84 75
0.861515 0.560123 6.85245 70 54 48
0.858293 0.580505 6.84978 52 32 24
0.825738 0.758446 7.05512 149 125 119
1.64761 -0.730457 6.92049 144 102 74
1.8626 -0.698787 6.81563 178 136 113
1.67045 -0.632096 7.02057 132 116 102
1.67718 -0.6206 7.04824 82 64 56
1.73467 -0.536709 6.97981 151 124 108
3.88483 -0.904276 10.5899 138 106 80
1.94287 -0.266575 7.49613 108 118 84
1.95085 -0.250574 7.49736 77 82 52
-0.561623 -0.162006 7.34494 45 14 7
2.13651 -0.14178 7.12631 91 62 56
1.77912 0.0047029 7.50007 32 13 2
-0.583126 0.0958882 6.52737 148 97 98
-0.576108 0.0951234 6.50924 142 82 85
-0.597204 0.142753 6.50745 156 114 116
-0.562798 0.172606 6.66626 158 128 104
0.79776 0.357141 6.85609 98 28 24
0.732776 0.533068 7.26216 132 104 92
0.735599 0.563242 7.19809 156 126 110
0.913614 0.794898 7.02463 80 53 50
1.73681 -0.760291 6.99384 108 11 8
1.73395 -0.636753 6.88784 137 105 88
-0.641569 -0.0693303 6.51035 46 43 60
-0.600294 -0.134973 7.34239 130 108 80
-0.651821 -0.0311981 6.52787 162 148 130
2.02707 -0.0484681 7.17284 82 38 23
1.73924 -0.0339456 7.57537 161 129 107
2.19988 -0.0087536 7.23273 78 37 22
2.1064 0.00914139 7.21042 94 56 34
1.81959 0.0140436 7.52625 42 21 10
-0.569266 0.0957242 6.51519 163 117 118
-0.572428 0.130298 6.5223 47 20 17
-0.596635 0.142366 6.50814 164 135 136
-0.580136 0.143611 6.52399 149 130 130
-0.431103 0.152849 6.8842 114 26 5
1.25453 0.471729 7.03045 90 70 56
0.875061 0.536207 6.85564 81 70 67
0.761131 0.700422 7.06323 103 60 48
0.82453 0.810338 7.0858 131 100 92
1.71129 -0.561403 6.98978 104 66 40
-0.366261 -0.398952 7.17729 180 120 102
1.82527 -0.485165 7.49705 129 94 51
1.69805 -0.277321 7.40282 70 39 16
2.03181 -0.051957 7.12683 90 51 40
-0.5791 0.130343 6.54709 44 18 14
-0.422031 0.154236 6.85604 117 18 6
1.11503 0.269929 7.09983 138 74 56
0.781854 0.318784 6.8456 27 8 2
0.725085 0.556805 7.15248 158 128 112
1.63153 -0.662148 7.2525 98 79 44
-0.434267 -0.520425 7.16917 140 97 75
-0.340565 -0.394542 7.19731 100 52 40
1.83493 -0.449326 7.53129 160 154 106
1.82198 -0.392269 7.52351 92 33 14
-0.557808 -0.168671 7.3428 34 9 6
1.74845 -0.197049 7.48683 126 95 72
0.824739 0.738613 7.06751 102 83 78
0.852499 0.817203 7.07755 89 56 52
1.87665 -0.416296 7.46063 79 24 13
1.80227 -0.387515 7.46497 94 36 16
-0.496822 -0.00777017 7.30153 44 14 5
1.13941 0.285045 7.17459 128 44 28
1.02155 0.616826 6.97492 142 97 90
0.794528 0.791957 7.08901 68 34 22
-0.27266 -0.532139 7.31641 52 26 7
-0.274156 -0.508669 7.31838 76 36 16
1.8664 -0.536899 7.47885 140 104 66
1.92615 -0.501798 7.4586 112 86 42
2.00046 -0.360767 7.37087 79 71 50
1.7614 -0.174852 7.41072 178 148 134
1.82218 -0.000976897 7.50423 48 24 6
1.73782 0.0547475 7.6179 63 45 29
2.20544 0.204773 7.35145 199 176 164
-0.570066 0.401674 6.67589 24 18 30
-0.577473 0.409263 6.68453 108 102 110
1.03823 0.541526 6.86889 80 62 56
0.889965 0.547019 6.8678 98 88 86
0.88014 0.572159 6.84331 78 54 48
-0.721088 0.637077 6.66136 140 56 29
1.95629 -0.368902 7.26227 86 82 62
1.11861 0.269404 7.09705 126 62 48
0.779214 0.31051 6.8403 45 8 3
-0.571653 0.397562 6.68371 24 20 32
0.82978 0.55549 6.86408 75 64 60
0.851164 0.566182 6.84937 64 44 35
1.91606 -0.413205 7.47735 134 104 75
1.98113 -0.372864 7.30968 82 77 56
1.77873 0.00288728 7.49954 34 14 4
1.7967 0.00298649 7.47895 94 75 60
2.36386 0.14363 7.34067 54 38 28
1.1303 0.272978 7.12188 134 84 64
-0.613928 0.410049 6.65184 26 21 32
-0.625969 0.424229 6.65361 113 106 120
0.829809 0.554032 6.85835 72 61 56
0.878936 0.563878 6.84958 60 38 30
-0.374207 -0.389302 7.19014 169 108 87
1.84232 -0.450056 7.53212 156 147 106
2.05247 -0.384003 7.32271 74 68 50
1.91602 -0.348943 7.46037 156 140 104
1.7265 -0.262034 7.35909 162 134 117
1.77635 0.088391 7.5576 156 116 99
-0.572824 0.397728 6.67333 24 20 34
0.767859 0.710524 7.09721 104 56 46
-0.467427 -0.489541 7.19908 165 117 90
1.814 -0.438544 7.47815 156 152 108
-0.638705 0.424186 6.58987 46 40 53
0.962143 0.445799 6.83954 35 12 4
0.826996 0.524778 6.88564 199 175 168
-0.501841 0.546266 6.8354 124 28 24
0.759331 0.742327 7.1243 99 66 60
0.807421 0.745764 7.03646 116 86 78
0.901156 0.792655 7.02518 114 86 82
1.72823 -0.791161 7.04367 152 130 108
1.8743 -0.415101 7.444 76 19 6
-0.361221 -0.29797 7.25562 153 92 72
-0.552276 -0.213673 7.34212 173 118 90
1.70792 -0.24537 7.3427 67 36 22
1.81642 -0.220899 7.368 116 78 56
-0.473434 0.00328864 7.33531 144 92 70
-0.427868 0.0390089 7.33976 36 9 5
-0.454935 0.0641533 7.37928 140 110 90
-0.580992 0.102166 6.54678 155 136 134
0.760315 0.70019 7.06567 102 56 46
0.775624 0.737053 7.1309 59 20 12
0.763604 0.768881 7.14364 97 64 58
1.6925 -0.00179003 7.52935 134 112 88
1.89651 0.331629 7.3667 184 160 150
0.788669 0.322601 6.88497 34 8 4
0.8982 0.513298 6.83019 140 120 117
1.03275 0.54157 6.86062 96 78 72
1.80205 -0.52881 6.96595 150 122 112
1.9039 -0.435658 7.45133 118 94 62
0.961733 0.569436 7.19801 135 72 69
0.903388 0.52459 6.85369 134 118 116
1.0058 0.527204 6.88967 145 128 119
1.67323 -0.950802 7.31322 150 126 100
1.62009 -0.837467 7.26009 153 132 94
1.72798 -0.782576 7.0397 144 118 93
1.62149 -0.806368 7.17012 123 96 64
1.6206 -0.813763 7.22239 160 120 86
1.74992 -0.766026 7.03773 100 24 6
1.84822 -0.686799 6.77755 199 162 139
1.68707 -0.826782 7.34546 103 78 52
1.98372 -0.657472 6.70301 242 224 220
1.96775 -0.662963 6.73708 238 223 211
2.0062 -0.63776 6.63349 208 188 183
1.94466 -0.656814 6.73372 158 126 111
2.00321 -0.629168 6.63289 194 182 178
2.00679 -0.626416 6.62663 241 234 230
2.00816 -0.599958 6.72444 129 112 106
1.64951 -0.680262 7.13414 96 82 65
1.80067 -0.642056 6.94798 150 100 76
1.65604 -0.722526 7.32754 115 106 72
1.66563 -0.642026 6.99596 111 96 80
1.68339 -0.714456 7.34247 92 80 58
1.96487 -0.575539 6.73608 223 200 190
1.98572 -0.575849 6.76536 84 63 55
1.98983 -0.581839 6.82333 150 126 115
2.00546 -0.573177 6.79032 184 166 162
1.99095 -0.562625 6.75355 240 222 218
1.99116 -0.563452 6.77198 88 69 62
2.09886 -0.577367 6.8159 254 245 244
2.0914 -0.570949 6.78024 240 229 225
2.02115 -0.579836 6.8551 131 110 100
2.04788 -0.555471 6.74699 146 128 125
1.6554 -0.633353 7.22405 154 122 94
2.08327 -0.539083 6.75507 144 124 118
2.0826 -0.537062 6.77398 210 193 188
1.99952 -0.533059 6.77901 164 148 142
2.08535 -0.513907 6.8049 206 190 184
-0.254289 -0.524573 7.29382 85 57 20
1.84786 -0.524155 7.06842 204 168 144
1.97565 -0.537499 7.29514 168 148 110
1.88985 -0.555344 7.4873 90 48 15
1.9251 -0.560219 7.53073 86 50 12
1.87583 -0.54695 7.48102 172 138 99
1.86027 -0.534647 7.47531 174 146 102
2.41988 -0.507617 7.37746 86 76 50
2.59542 -0.541068 7.67405 61 50 26
1.83082 -0.473445 7.5174 134 109 64
1.83982 -0.46446 7.52635 159 142 98
1.83503 -0.435905 7.50705 163 140 102
2.16295 -0.408242 7.26917 91 79 66
1.85315 -0.432378 7.56742 120 90 52
2.11345 -0.384785 7.17881 159 134 122
1.97782 -0.357415 7.0198 113 34 16
2.01795 -0.393042 7.31101 125 114 98
1.82372 -0.41061 7.50386 162 132 94
2.09845 -0.369703 7.14359 158 124 113
1.90367 -0.43236 7.71821 162 134 96
1.98373 -0.381178 7.33528 117 114 82
1.76149 -0.392023 7.48989 142 125 84
2.00924 -0.34043 7.0831 182 100 76
1.77667 -0.363699 7.43069 91 32 10
1.82104 -0.368351 7.47533 181 136 116
2.10873 -0.318915 7.04771 193 139 114
1.72903 -0.34419 7.36968 100 65 34
1.98183 -0.315902 7.10644 111 40 30
1.7074 -0.332498 7.347 165 132 108
2.0198 -0.332859 7.35535 135 120 104
2.00614 -0.307937 7.13869 110 24 12
2.04063 -0.324384 7.30205 97 79 62
2.00573 -0.296518 7.07286 146 55 28
2.02766 -0.296777 7.07751 208 120 96
2.06948 -0.322087 7.3237 187 160 148
2.06749 -0.323663 7.3713 100 83 66
2.0174 -0.315789 7.38577 80 66 50
2.06363 -0.273741 7.02691 100 37 15
1.97411 -0.329711 7.57955 142 138 99
1.68113 -0.270752 7.34955 52 21 3
1.6717 -0.269543 7.37723 86 69 30
2.0591 -0.267681 7.31917 199 168 157
2.04686 -0.242176 7.08044 162 73 50
1.99437 -0.279863 7.61499 127 133 94
1.91947 -0.242612 7.42421 82 88 51
2.021 -0.214283 7.10549 98 89 88
2.03872 -0.169712 7.13945 111 104 105
1.76603 -0.177765 7.39775 135 103 86
2.05163 -0.153739 7.14374 98 92 94
1.96658 -0.171726 7.69536 162 148 123
2.04229 -0.120069 7.52587 90 74 54
2.00301 -0.125974 7.762 48 32 10
2.02588 -0.118678 7.79395 32 14 2
2.09103 -0.118475 7.85402 58 46 26
2.15034 -0.0881902 7.12324 62 34 28
2.20244 -0.0866117 7.2001 132 108 100
2.21439 -0.0848649 7.1839 110 70 59
2.25123 -0.0845648 7.15394 72 30 8
2.04009 -0.080447 7.34619 108 51 22
2.41815 -0.0800737 7.37059 166 138 113
2.06944 -0.0585082 7.12347 127 90 75
2.15577 -0.0577521 7.12907 98 71 64
2.23211 -0.0419921 7.34696 145 95 81
1.73119 -0.0332773 7.61419 158 132 108
2.15411 -0.0508044 8.03484 66 64 32
2.12231 -0.0449933 7.86011 78 71 45
1.69442 -0.0175478 7.5069 40 13 2
1.70382 -0.00504818 7.55223 151 126 102
1.73676 -0.00572299 7.57397 50 30 22
1.78235 -0.00170638 7.49407 102 77 66
1.81386 0.00503952 7.52043 116 98 84
1.73548 0.0164742 7.60079 34 14 6
1.75439 0.0163387 7.5788 33 16 4
-0.579966 0.0990941 6.55121 154 110 108
1.7588 0.0350506 7.58926 60 42 25
1.69781 0.0607081 7.7869 116 92 63
2.30362 0.0583989 7.34402 46 22 7
2.37814 0.0708311 7.30086 163 139 114
2.06865 0.0803641 7.21006 53 32 20
2.27373 0.0828511 7.39929 40 20 9
2.21982 0.0840533 7.26556 46 31 18
2.33762 0.0887203 7.27882 160 130 114
2.38587 0.0936483 7.50888 74 46 22
2.10134 0.105628 7.24162 128 106 96
2.42014 0.0993937 7.37427 158 133 114
2.35392 0.112989 7.32816 166 138 122
2.32265 0.116519 7.30299 59 36 14
-0.575027 0.170863 6.69147 152 110 92
2.38288 0.122246 7.46497 160 138 114
2.28366 0.146094 7.3232 98 54 35
2.39461 0.145795 7.33899 61 44 34
2.27547 0.179544 7.30627 207 186 176
0.917495 0.266196 7.08996 174 144 124
0.962097 0.25756 6.94145 157 116 92
1.75808 0.365789 7.42206 144 114 111
2.38668 0.370654 7.26017 92 70 60
-0.60993 0.372859 6.63548 118 112 120
-0.60989 0.381399 6.64617 92 88 98
2.46869 0.406824 7.35533 104 82 70
-0.581426 0.403556 6.66687 90 85 95
2.39347 0.415703 7.25637 154 136 124
2.46108 0.440802 7.3806 89 68 56
2.44342 0.443303 7.33879 173 152 134
2.40191 0.444266 7.29729 90 66 56
2.54878 0.467064 7.49024 53 34 19
0.738121 0.45665 6.96288 146 102 92
0.723557 0.483903 6.95517 214 190 180
1.2198 0.474783 6.96349 146 130 117
0.635679 0.503885 7.08081 152 126 116
1.20905 0.515658 7.066 142 126 118
0.741375 0.514658 6.98317 153 106 96
0.954451 0.497615 6.82901 54 38 23
0.984806 0.512559 6.83455 158 130 120
0.853966 0.53113 6.8409 70 54 49
1.05608 0.578006 6.84278 94 76 68
-0.775496 0.737877 6.82179 138 56 31
2.03929 -0.750961 6.82293 38 18 5
1.62508 -0.84435 7.27986 156 141 102
1.63042 -0.82063 7.24679 160 120 86
1.64656 -0.801035 7.24646 100 74 49
2.06906 -0.6947 6.85492 244 227 222
1.65389 -0.801733 7.32405 162 140 100
1.9857 -0.671018 6.77131 236 222 210
1.90972 -0.639611 6.67479 158 126 112
2.06635 -0.662637 6.75818 211 196 190
1.70775 -0.657011 6.91608 118 82 64
1.64383 -0.677695 7.12161 96 82 65
1.65308 -0.722003 7.3193 108 98 66
1.64819 -0.63112 6.95714 102 90 73
1.65868 -0.70126 7.27963 90 80 56
1.94097 -0.848841 8.05021 96 80 50
1.96267 -0.568681 6.77201 153 129 118
2.06541 -0.565325 6.75956 244 230 228
2.05715 -0.559262 6.72457 240 228 224
1.65948 -0.674465 7.33 101 87 43
2.04205 -0.546956 6.75103 112 94 88
2.01438 -0.53799 6.7512 224 207 204
2.01761 -0.540424 6.80807 167 150 144
2.02271 -0.535563 6.80168 98 81 76
2.04512 -0.520347 6.73802 248 238 237
2.00069 -0.523536 6.79145 93 74 69
1.80235 -0.508305 6.97706 200 160 140
1.78757 -0.488744 6.9375 108 61 30
1.8924 -0.513955 7.10301 188 158 138
1.88071 -0.543961 7.4363 94 50 16
1.85397 -0.462851 6.96466 84 51 26
1.86033 -0.534605 7.44875 104 50 16
1.88532 -0.54349 7.53471 174 146 102
2.34614 -0.537589 7.45651 160 130 100
2.24342 -0.49926 7.29839 104 66 50
2.41219 -0.488893 7.48243 112 98 94
2.01069 -0.367261 7.08488 118 41 25
2.04777 -0.384834 7.30668 88 78 60
1.90636 -0.433594 7.72423 166 144 103
2.02404 -0.394701 7.43687 154 149 110
2.00837 -0.344261 7.08347 180 107 80
1.88812 -0.415212 7.74041 119 77 43
1.7576 -0.370778 7.45367 154 126 94
1.72183 -0.358281 7.39528 111 80 47
2.03235 -0.362662 7.34996 133 118 103
2.00578 -0.320178 7.09151 157 56 42
2.11573 -0.3224 7.06103 190 135 112
2.00661 -0.318721 7.15526 110 38 28
1.97683 -0.334706 7.30518 122 106 86
1.8222 -0.371478 7.67761 136 100 72
2.03415 -0.33444 7.37683 142 125 110
2.04779 -0.320617 7.33402 102 84 68
2.3405 -0.301327 7.28964 156 137 94
1.74656 -0.289692 7.51879 58 26 8
1.69632 -0.257284 7.35287 142 110 91
2.24288 -0.256522 7.18655 90 58 46
1.79768 -0.244685 7.30297 72 42 27
2.25133 -0.236517 7.07883 180 128 100
1.74855 -0.203457 7.48095 140 106 76
1.83095 -0.191136 7.41677 56 22 4
1.89293 -0.202531 7.52214 33 9 0
2.04354 -0.169799 7.14803 111 104 105
-0.652259 -0.0484121 6.51592 86 81 85
1.90336 -0.187221 7.50602 24 12 3
1.77979 -0.166677 7.42301 50 12 2
2.05479 -0.154438 7.15306 96 89 90
1.90926 -0.162434 7.55902 154 137 112
2.21169 -0.149452 7.26004 119 84 70
1.73772 -0.14015 7.44584 148 104 76
2.30081 -0.108869 7.21363 171 144 122
1.98671 -0.120257 7.6655 46 26 9
2.08735 -0.107453 7.62887 89 74 54
2.02891 -0.111334 7.93477 171 154 129
2.29063 -0.0787222 7.18252 68 29 6
2.36603 -0.0765429 7.28418 166 139 113
2.29302 -0.0643134 7.18433 122 90 67
2.22708 -0.0899578 8.06436 166 152 127
1.72744 -0.0275285 7.52189 162 132 112
1.73644 -0.01208 7.53634 26 9 0
1.83603 -0.00247684 7.54411 42 18 3
1.73602 0.00781429 7.62962 160 134 116
1.71105 0.0187497 7.59216 34 18 5
1.74374 0.0141488 7.59507 103 80 71
2.39829 0.0357183 7.48539 50 26 10
2.29512 0.0458636 7.30379 42 20 5
2.26516 0.0665799 7.31406 33 18 6
2.31657 0.0865007 7.24406 160 129 112
2.46582 0.0925899 7.6441 78 52 28
2.12425 0.103952 7.28908 154 131 120
2.35655 0.123184 7.26461 68 48 34
2.30178 0.151545 7.34782 108 56 40
1.87169 0.33166 7.25888 171 138 126
2.54508 0.399628 7.46856 178 155 138
2.39041 0.403028 7.27173 92 76 70
-0.585991 0.404678 6.6768 66 62 73
2.46959 0.427162 7.38364 154 136 124
2.38856 0.432658 7.33722 68 34 19
-0.592059 0.419551 6.70563 92 90 98
2.41958 0.447238 7.32491 90 66 56
0.739552 0.459487 6.98007 142 94 84
1.27466 0.475613 7.10308 104 84 66
0.725865 0.485673 6.98368 177 146 135
0.751745 0.5223 7.05743 146 110 100
2.28854 0.532346 7.29164 180 152 140
0.634439 0.523175 6.99179 90 65 56
0.983934 0.51259 6.82314 156 128 120
0.843619 0.548154 6.90407 87 70 63
0.980115 0.743521 7.12785 78 18 16
1.60995 -0.834031 7.23618 156 139 100
1.70855 -0.771443 6.99275 146 120 96
1.96998 -0.659278 6.69956 208 186 177
1.97498 -0.653171 6.68834 244 227 222
1.87828 -0.624589 6.61819 161 130 116
1.99993 -0.65482 6.73937 253 242 238
1.96385 -0.617905 6.67934 78 60 56
1.65367 -0.766902 7.34139 123 85 47
1.99979 -0.608641 6.69659 188 172 166
1.99484 -0.579485 6.78189 84 63 55
2.04424 -0.593746 6.87384 88 68 60
1.62829 -0.652325 7.2476 110 96 54
1.65511 -0.633282 7.2102 143 112 87
2.01693 -0.544277 6.77992 132 114 110
1.96773 -0.512036 6.64072 230 215 212
1.9979 -0.527706 6.75768 98 81 76
1.99493 -0.541314 6.87724 187 166 157
2.00557 -0.525455 6.79545 96 78 72
1.98537 -0.509165 6.78554 96 75 66
2.00066 -0.510799 6.78621 174 156 151
2.05154 -0.504972 6.74902 202 187 183
1.79389 -0.505266 6.95569 168 130 110
2.1319 -0.488011 6.95325 170 144 134
1.83476 -0.473945 6.95166 98 64 38
1.88857 -0.480336 7.0102 94 58 34
1.91482 -0.542683 7.5002 175 150 106
2.20654 -0.482116 7.08264 124 92 75
2.49851 -0.532284 7.51341 62 51 30
2.15328 -0.416421 7.28384 164 138 125
2.04045 -0.420916 7.47137 108 108 68
1.97958 -0.35869 7.02666 121 44 27
2.10754 -0.379911 7.15422 162 140 129
1.71062 -0.351619 7.36816 110 76 45
2.0132 -0.318329 7.37933 82 68 52
1.69971 -0.279424 7.44413 96 76 39
1.79759 -0.282686 7.45648 113 80 60
1.73671 -0.265364 7.38865 170 139 120
2.16733 -0.249145 7.09373 40 12 5
2.21845 -0.228891 7.01781 176 131 104
1.94992 -0.250088 7.49479 90 95 55
2.21074 -0.200666 7.23102 144 94 72
1.76107 -0.206631 7.51516 139 106 74
2.12072 -0.17975 7.083 52 21 11
1.83262 -0.194149 7.41908 57 20 4
2.18351 -0.175902 7.14616 82 22 2
1.98622 -0.182196 7.59115 164 159 132
1.98814 -0.111028 7.40997 90 78 56
2.02109 -0.101659 7.48091 86 74 54
1.76438 -0.0966415 7.61442 216 188 164
1.75549 -0.0812148 7.48708 172 146 122
2.03971 -0.10047 7.77657 46 29 10
2.19419 -0.108404 8.0977 165 153 130
1.76437 -0.0548556 7.52197 112 84 51
2.12728 -0.0468061 7.8712 76 70 44
1.73208 -0.0199129 7.61087 50 21 8
2.10306 -0.0283883 7.84412 70 65 40
-0.437005 0.0524773 7.39026 38 8 2
1.71741 -0.00157036 7.58023 160 132 110
1.77703 0.0165991 7.64535 32 16 4
2.38249 0.0198146 7.49835 35 12 2
1.68911 0.0584792 7.75975 114 85 56
-0.567135 0.128242 6.51372 69 35 34
2.21225 0.0798595 7.28401 35 12 2
2.34796 0.0821741 7.49761 26 17 10
-0.576127 0.149535 6.51669 148 106 103
2.30968 0.110457 7.2466 170 142 126
2.3386 0.121801 7.3248 37 18 4
2.44581 0.126588 7.42116 53 34 22
2.1172 0.136549 7.28419 68 50 41
0.871396 0.285462 8.10406 108 84 56
0.902129 0.263004 7.00471 172 142 122
2.03924 0.325452 7.15768 151 106 84
2.40438 0.421389 7.29944 46 23 16
2.50634 0.476311 7.4507 185 162 144
0.624872 0.502462 7.14801 88 66 50
0.756482 0.53145 7.3716 168 138 125
1.18028 0.472166 6.96443 152 134 120
0.646065 0.531256 7.20363 93 67 59
0.748314 0.519624 7.04621 142 114 104
0.63813 0.533046 7.06667 92 66 58
-0.603707 0.524117 6.7363 42 20 30
-0.550186 0.572336 6.8065 138 73 33
1.04921 0.559997 6.86472 46 30 22
-0.668596 0.632487 6.82267 158 118 96
-0.655368 0.68657 6.91147 85 14 6
0.760181 0.693787 7.0244 152 89 76
0.758853 0.699105 6.98015 80 22 14
-0.675084 0.701807 6.84947 108 28 10
0.766861 0.741278 7.14084 97 60 51
0.893221 0.740578 7.00866 84 50 50
0.86367 0.765424 6.86265 84 53 46
-0.648676 0.954776 6.78468 130 36 39
1.63739 -0.818246 7.30471 96 72 32
1.61751 -0.780456 7.16693 96 70 44
2.03955 -0.667818 6.8346 88 65 59
1.64763 -0.675263 7.11689 96 84 66
1.99513 -0.597008 6.72764 83 64 58
1.67342 -0.668281 7.27411 106 74 46
2.01887 -0.575496 6.80454 228 210 206
1.65433 -0.669888 7.30198 96 78 38
2.02991 -0.543358 6.77218 231 214 212
2.00287 -0.539924 6.78244 175 156 152
2.03996 -0.528336 6.83037 108 92 87
2.02547 -0.525113 6.86217 128 108 98
1.87793 -0.55944 7.15627 127 88 66
1.87897 -0.537878 7.13209 182 142 120
1.80427 -0.495542 6.97546 99 56 22
1.90459 -0.554482 7.50734 90 27 0
1.8221 -0.50814 7.29518 153 114 74
2.23499 -0.483607 7.11112 58 34 20
2.2941 -0.509885 7.38561 71 27 12
1.83807 -0.461369 7.25113 107 72 30
1.8918 -0.429505 7.6863 166 138 101
2.04599 -0.337872 7.04042 120 20 11
2.00208 -0.371316 7.3568 130 110 82
1.73621 -0.339491 7.26409 183 138 118
2.54082 -0.407433 7.63414 105 92 63
1.98691 -0.311873 7.05559 156 60 41
2.27269 -0.347818 7.30037 173 122 100
2.02399 -0.322342 7.18551 113 35 25
2.024 -0.270142 7.02929 136 42 20
1.65249 -0.261283 7.25591 66 32 14
2.03197 -0.262325 7.25971 200 170 158
2.34283 -0.285708 7.40657 32 10 5
1.6839 -0.252072 7.32456 163 130 110
1.7194 -0.242945 7.3554 74 44 30
1.74084 -0.213982 7.49144 90 59 26
2.15188 -0.194504 7.12776 144 94 72
2.17804 -0.173543 7.13502 78 20 0
1.78475 -0.168729 7.28302 110 76 56
1.99872 -0.17427 7.64683 122 118 92
2.07303 -0.125734 7.80644 79 68 46
2.0252 -0.104199 7.49218 82 76 54
1.98242 -0.0803455 7.16056 187 142 116
2.11206 -0.0784292 7.0483 98 72 66
1.87241 -0.0895928 7.58987 78 50 22
2.14845 -0.106923 7.97906 164 153 132
2.3192 -0.0803655 7.23223 66 28 5
2.25574 -0.0997591 8.12469 165 153 128
1.98676 -0.0610564 7.23143 80 27 9
2.34051 -0.071071 7.26806 118 84 60
1.72299 -0.0282588 7.50831 160 130 110
2.05941 -0.0407774 7.71499 78 71 45
1.7022 -0.0135297 7.50518 38 16 7
1.74293 -0.0107536 7.56146 26 10 1
1.8213 0.00232324 7.50953 46 23 10
2.20838 -0.00440306 7.2828 78 38 20
2.21872 0.00150321 7.22514 99 68 42
2.46329 0.00371579 7.70209 149 116 91
-0.591749 0.0949867 6.53737 136 76 78
2.28204 0.0406317 7.40853 38 19 10
-0.571756 0.11915 6.53894 160 136 135
1.72915 0.086922 7.7026 140 88 62
2.05058 0.0756892 7.19637 174 148 136
-0.580422 0.145502 6.53054 153 130 128
1.61517 0.10917 7.50583 108 70 40
2.5461 0.0954628 7.78215 82 54 30
2.3926 0.105242 7.33294 172 146 128
2.3711 0.124306 7.3833 34 17 2
0.882723 0.291908 8.15668 100 76 47
0.912835 0.242507 6.93693 122 101 81
0.915993 0.266942 7.09124 166 126 108
-0.491725 0.322943 6.72394 172 136 112
-0.588413 0.411484 6.69797 122 119 126
-0.623572 0.422533 6.64735 93 88 100
0.743876 0.468791 7.03772 140 104 92
1.25876 0.514596 7.08708 134 116 108
1.25545 0.536416 7.08367 150 132 122
0.803746 0.531007 6.76135 148 132 124
0.769398 0.750766 7.17749 85 49 40
-0.570071 0.73411 6.97346 136 68 32
-0.757113 0.799416 6.85813 187 107 64
1.51277 -0.718743 6.8921 136 108 81
1.64935 -0.733545 6.93173 132 90 60
1.68354 -0.835568 7.31966 144 122 99
1.61394 -0.803864 7.23962 108 82 44
1.6468 -0.766124 7.33324 138 108 64
1.66404 -0.683769 7.16159 90 80 63
2.00375 -0.571047 6.77569 204 186 182
1.90938 -0.509013 6.61869 169 151 146
1.98842 -0.534338 6.76907 145 126 119
1.57442 -0.487573 6.70463 148 118 105
1.91553 -0.518752 6.81979 119 94 82
1.70532 -0.523129 6.91335 160 131 116
1.78327 -0.49585 6.95241 96 58 27
1.91438 -0.493526 7.44553 116 66 32
1.86165 -0.498327 7.59223 138 113 66
1.84941 -0.451893 7.44943 182 127 100
2.19652 -0.424629 7.334 101 86 73
2.00017 -0.420818 7.38413 111 109 71
2.13728 -0.37097 7.38405 132 44 36
1.95381 -0.313832 7.06263 154 102 93
2.09011 -0.324137 7.12395 168 90 66
1.98402 -0.372107 7.63243 104 76 50
1.93465 -0.333325 7.49457 66 45 14
2.00758 -0.315928 7.36633 80 66 50
1.57572 -0.172138 6.24693 140 42 22
2.00916 -0.270656 7.14891 142 109 92
2.03768 -0.257788 7.00762 178 98 70
1.72361 -0.2514 7.38659 60 26 15
1.98829 -0.215036 7.14034 58 37 28
2.19362 -0.238442 7.28716 26 12 8
1.81104 -0.22742 7.68516 105 76 44
2.26806 -0.214864 7.3484 140 90 67
1.86237 -0.18581 7.41578 20 11 4
2.17248 -0.172781 7.13586 81 26 6
1.7601 -0.178071 7.43752 200 164 142
2.11251 -0.182267 7.9225 93 80 57
2.02147 -0.12962 7.16904 20 10 11
2.00175 -0.147121 7.67033 109 94 69
1.98263 -0.108968 7.41419 105 89 72
2.05703 -0.0830641 7.1348 160 127 112
2.18304 -0.0879824 7.19439 94 68 62
1.94703 -0.075657 7.15534 132 74 42
1.92628 -0.0805082 7.46795 166 155 133
1.9841 -0.0565459 7.20177 84 38 20
2.10137 -0.0431837 7.83756 60 64 37
1.975 -0.021408 7.18034 178 137 113
1.70335 -0.0173623 7.53222 40 13 2
1.75747 -0.0154701 7.40286 166 130 110
1.72789 -0.00970882 7.5415 34 14 8
1.69909 0.0211195 7.56087 26 14 4
1.7406 0.0222834 7.57873 26 14 8
2.19751 0.0164627 7.23333 136 102 79
-0.592591 0.117833 6.48743 148 93 94
1.67692 0.0585795 7.73036 134 112 83
1.71592 0.0558642 7.563 74 56 37
2.31177 0.0953613 7.37558 90 64 38
2.44778 0.0949741 7.51136 53 30 16
0.820551 0.300767 7.60332 133 102 71
1.67973 0.296611 7.48806 168 137 120
-0.494734 0.324649 6.73227 168 128 107
0.777613 0.318883 6.83273 66 11 8
-0.649894 0.464851 6.68811 30 24 34
0.731257 0.514425 7.24521 152 126 112
0.634839 0.541047 7.1651 118 94 86
-0.650116 0.625346 6.84078 166 130 117
-0.673258 0.716564 6.92871 149 123 110
0.972774 0.745075 7.11216 58 15 14
-0.770531 0.742512 6.817 142 46 34
-0.73629 0.735676 6.79462 164 71 43
1.6846 -0.819975 7.43569 152 142 96
1.70449 -0.561629 7.0262 152 125 112
-0.275463 -0.542038 7.3278 36 20 4
1.72984 -0.535176 6.96841 164 136 123
1.73159 -0.472627 6.83482 98 60 28
-0.480363 -0.437971 7.10852 50 22 11
2.27062 -0.503774 7.36063 105 70 58
1.7299 -0.40055 7.02251 108 48 18
1.9781 -0.417274 7.24824 84 81 64
2.01581 -0.405624 7.30103 148 124 110
2.05806 -0.377845 7.12553 140 48 40
1.8506 -0.417364 7.6056 166 152 108
2.02261 -0.389411 7.43559 157 147 102
1.89098 -0.376983 7.41847 80 26 8
2.16669 -0.336726 7.15747 161 106 80
2.02016 -0.326761 7.29472 84 76 60
2.06576 -0.311115 7.16935 178 90 64
-0.561425 -0.240911 7.33369 74 34 18
2.09504 -0.339609 7.55914 96 78 63
2.06105 -0.261499 7.0614 170 81 50
1.83786 -0.259728 7.38054 10 6 2
1.75073 -0.205853 7.52806 106 78 46
2.03056 -0.218593 7.68149 66 76 44
1.83736 -0.176198 7.414 104 74 50
2.0535 -0.117434 7.57395 112 94 76
1.9888 -0.108518 7.78224 160 149 128
1.8422 -0.0830983 7.5334 96 65 42
1.74304 -0.0364367 7.58574 172 140 117
1.73105 0.0243192 7.6547 40 25 10
-0.556739 0.194972 6.73844 81 24 4
2.0514 0.217103 7.3707 103 58 32
0.951189 0.253273 7.03068 84 54 34
0.854333 0.342871 6.88732 30 12 11
-0.624148 0.383911 6.65978 114 108 116
0.804063 0.379465 6.87934 60 10 3
-0.62716 0.42236 6.65435 114 108 119
0.645613 0.500176 7.0875 160 136 123
1.23821 0.488128 7.08555 154 136 120
0.642278 0.523193 7.10461 95 69 63
-0.686081 0.625214 6.71969 138 78 34
-0.673295 0.706128 6.96803 86 7 2
-0.67742 0.712701 6.85134 108 18 4
-0.75193 0.802419 6.8496 182 108 56
1.7191 -0.744773 6.94474 112 9 5
1.83747 -0.664124 6.65657 112 16 8
1.89787 -0.722756 6.89393 150 109 82
1.71814 -0.533019 6.82267 56 6 3
1.75597 -0.553826 7.03729 163 132 118
1.90036 -0.424959 7.50539 77 14 6
2.04306 -0.361606 7.15093 158 76 53
2.10089 -0.324679 7.15784 176 93 68
1.99616 -0.349408 7.64578 54 30 3
1.65031 -0.271871 7.12408 108 84 68
1.81016 -0.306407 7.60122 176 144 126
1.89626 -0.291268 7.403 90 96 58
2.03236 -0.24884 7.10131 172 72 40
1.99199 -0.186352 7.15121 134 103 88
1.68512 -0.185933 7.36998 104 82 50
2.03394 -0.166305 7.13514 42 36 37
2.00188 -0.159998 7.18684 62 39 24
1.70424 -0.0497812 7.5025 173 144 120
1.97225 -0.0219244 7.17852 168 124 98
2.11834 0.00573915 7.24519 116 89 68
1.69177 0.032054 7.55374 42 26 10
1.72148 0.0746794 7.73355 134 84 55
0.883661 0.253632 6.93132 168 148 128
1.0855 0.262263 7.00064 150 108 86
0.848987 0.337448 6.87767 29 13 12
-0.584337 0.407322 6.67163 104 98 106
0.70957 0.542735 7.03332 159 133 114
1.2529 0.546502 7.12321 150 134 122
0.833675 0.542629 6.69723 42 23 17
-0.589389 0.666347 6.82995 158 101 32
0.786119 0.778488 6.99688 78 46 34
1.66991 -0.552029 6.96832 153 125 112
1.70449 -0.552992 6.97291 104 64 38
1.71049 -0.534316 6.93351 171 138 128
1.86787 -0.541198 7.43664 116 62 31
1.82889 -0.444803 7.5422 160 154 106
1.7871 -0.343972 7.38691 170 132 112
2.07184 -0.355086 7.42444 82 81 64
2.00318 -0.322354 7.15121 117 49 37
1.64141 -0.265037 7.25708 107 80 52
1.74049 -0.257638 7.42499 56 24 10
1.99761 -0.230801 7.15462 102 76 66
1.93209 -0.215849 7.60657 26 9 2
1.93607 -0.212511 7.48278 60 76 52
1.83969 -0.205162 7.87435 163 152 128
2.03507 -0.153147 7.22779 21 12 12
1.84084 -0.14501 7.5664 156 126 105
-0.536127 -0.0584384 7.37512 137 85 60
2.0024 -0.0904935 7.17338 179 144 125
1.89692 -0.0822626 7.67557 90 59 35
1.95636 -0.0511886 7.12683 64 19 8
1.85759 -0.0608464 7.91308 171 142 117
1.78126 -0.0518304 7.61324 111 86 57
1.8106 -0.0339865 7.55611 166 134 112
1.67904 0.0327115 7.63195 98 66 29
2.05077 0.178021 7.32048 160 126 104
0.893709 0.308258 8.20644 112 86 54
1.73661 0.330811 7.57248 128 22 19
0.708707 0.39483 7.71262 161 114 90
0.7412 0.474644 7.47869 160 130 116
0.712231 0.490944 7.17432 162 136 122
0.95378 0.423039 6.57793 97 86 70
0.703818 0.52958 6.95614 156 132 114
-0.551026 0.673583 6.92048 120 46 18
-0.658327 0.699948 6.92811 89 8 6
0.960207 0.734607 7.05533 55 18 18
0.750881 0.73366 6.99203 67 30 21
0.767503 0.773514 7.06116 92 59 51
2.17434 -0.973282 7.02428 148 119 90
1.8423 -0.483798 6.89836 128 92 68
1.98905 -0.209464 7.14152 74 52 44
0.879718 0.725105 7.02917 149 104 104
1.76356 -0.0175274 7.49091 164 132 105
2.07386 0.0975483 7.20782 172 152 141
1.72638 -0.163125 7.46579 147 119 96
1.74436 -0.140304 7.49482 136 98 72
2.0426 0.258596 7.23207 120 76 55
-0.747116 0.740811 6.81197 170 84 51
1.97919 -0.394062 7.3314 89 92 58
1.96599 -0.119861 7.65892 52 35 16
-0.650763 0.445255 6.63548 37 30 40
0.64394 0.549101 7.06706 156 127 116
-0.659677 0.628044 6.80967 162 127 110
2.03027 -0.272388 7.05094 146 48 25
2.05514 -0.0746251 7.12891 153 109 90
2.04131 0.0729218 7.20645 182 156 134
2.01814 0.306942 7.2419 100 52 30
0.865236 0.577928 6.88911 31 12 5
2.01438 -0.323552 7.33783 150 125 112
1.92267 -0.168631 7.61764 142 128 106
1.72142 0.341082 7.47491 137 12 14
-0.613506 0.385299 6.63451 91 84 92
-0.603079 0.395428 6.72689 21 18 34
-0.597459 0.393587 6.63068 17 14 28
-0.605931 0.435775 6.71298 20 15 34
0.864004 0.745824 7.10024 114 88 90
0.815176 0.597103 6.97448 103 69 62
1.8315 -0.186377 7.41769 53 21 4
2.18256 -0.134165 7.14837 116 68 52
0.773038 0.257489 6.86128 160 112 91
-0.649494 0.625128 6.84689 160 118 100
1.74376 -0.0376912 7.47903 86 61 33
-0.629904 0.427551 6.66065 108 102 114
1.94608 -0.504465 6.76396 97 70 58
1.97371 0.481732 7.24335 152 74 73
-0.608143 0.530273 6.73736 35 17 29
2.14811 0.131906 7.27845 139 96 66
2.04128 0.511064 7.25234 196 149 108
-0.665885 0.963777 6.8206 131 22 26
2.02676 0.0364369 7.16606 140 114 100
0.779772 0.24898 6.80771 160 124 100
0.970362 0.556033 6.85708 151 78 72
2.37635 0.00964945 8.03246 138 94 76
1.70324 -0.258677 7.36669 90 58 43
1.69749 -0.256551 7.32539 60 26 14
1.71519 -0.74191 6.93991 96 12 6
1.95058 -0.517929 6.789 152 128 120
1.93507 0.119152 7.27919 34 20 14
0.533572 0.120695 4.44067 115 52 40
1.73579 -0.758217 7.00458 96 12 6
2.02326 -0.345186 7.22585 164 98 92
2.26185 -0.760724 7.26409 182 159 150
1.91694 -0.519103 6.75677 238 222 215
0.856627 0.327046 6.84316 45 10 4
0.617655 0.524573 7.07554 176 155 148
0.970887 0.548053 6.87877 150 71 64
1.7052 -0.614982 6.98832 120 92 80
-0.602917 0.369513 6.65179 20 14 32
0.909799 0.559762 6.85977 135 116 112
1.64628 -0.663721 7.09156 92 84 66
1.99177 -0.191009 7.1432 143 115 100
0.797226 0.516824 6.86724 156 34 28
0.972871 0.570722 6.88812 156 78 70
1.62014 -0.798049 7.18075 168 138 112
1.62943 -0.78158 7.24788 157 140 105
1.96496 -0.64893 6.71767 227 200 193
1.95232 -0.63126 6.68287 98 74 66
1.64117 -0.741605 7.25717 133 118 98
1.99593 -0.635091 6.77225 186 162 152
2.01109 -0.612583 6.72059 178 160 153
1.96755 -0.575643 6.75216 207 183 172
1.71695 -0.606962 6.99372 112 84 72
1.9582 -0.545815 6.79584 166 138 132
2.01593 -0.566821 6.88619 88 64 54
2.03639 -0.535864 6.75171 246 228 224
2.00071 -0.551533 6.92751 186 165 156
1.97298 -0.528038 6.83014 198 176 168
1.87731 -0.488314 6.91822 247 227 216
1.8013 -0.491233 6.96225 106 64 34
2.09278 -0.474092 6.88706 176 150 140
1.85011 -0.478083 6.98315 98 65 37
1.86963 -0.464766 6.8966 176 136 120
1.84031 -0.45858 6.94209 92 58 34
1.9037 -0.537844 7.4701 157 128 85
2.08959 -0.368839 7.13869 144 96 80
2.02899 -0.358766 7.11631 184 109 84
1.71532 -0.332249 7.38983 138 101 74
2.14114 -0.3511 7.4755 207 178 168
1.83946 -0.213163 7.3929 97 64 46
1.87019 -0.19632 7.46976 32 9 2
2.17877 -0.114842 7.19563 60 32 28
2.10058 -0.0816833 7.09083 131 105 105
2.28187 -0.061841 7.16112 126 102 78
1.75655 -0.0305694 7.51028 74 52 20
1.73535 0.0114703 7.63852 156 130 116
1.69168 0.0160857 7.53717 32 17 4
0.914456 0.244588 6.95193 124 106 84
0.769291 0.484189 7.62882 172 122 104
0.633492 0.510285 7.05056 90 64 57
0.63634 0.537874 7.06425 91 64 56
0.877043 0.537705 6.87058 70 57 52
0.760971 0.701196 7.00314 120 48 38
2.00664 -0.599718 6.72307 119 100 94
2.00092 -0.599682 6.74017 86 66 58
1.94773 -0.568937 6.72787 178 153 144
0.958354 -0.121384 4.91737 83 65 60
2.01088 -0.552452 6.75346 160 142 138
1.9938 -0.558374 6.86424 166 138 132
2.03615 -0.536559 6.75387 244 227 224
1.95141 -0.518467 6.74246 104 82 72
1.99919 -0.517396 6.76642 92 74 68
2.01655 -0.518001 6.81695 157 138 132
1.86139 -0.485027 6.89052 223 200 188
1.80978 -0.492982 6.9741 116 75 44
1.83426 -0.46465 6.87947 168 128 109
1.8595 -0.445877 7.43104 127 75 52
2.04643 -0.372354 7.09034 115 16 11
2.02946 -0.358836 7.01697 152 116 102
2.171 -0.327932 7.10432 165 114 91
2.04208 -0.324322 7.3055 101 82 64
2.19415 -0.0947154 7.20998 60 34 30
1.92615 -0.0986631 7.71739 93 66 39
1.63589 -0.806297 7.20507 143 118 92
1.6318 -0.802047 7.27206 98 67 32
1.62788 -0.791626 7.23315 98 66 38
1.98219 -0.657529 6.7503 220 193 186
1.98832 -0.646277 6.75283 88 62 56
1.98778 -0.631301 6.7579 186 162 152
2.0159 -0.604749 6.76117 84 64 57
1.98231 -0.561732 6.73651 206 189 183
1.99833 -0.572632 6.8408 60 37 24
2.02516 -0.555785 6.77971 160 142 138
1.99651 -0.53424 6.82751 102 80 71
2.04501 -0.338716 7.03361 120 24 15
1.73098 -0.362645 7.37076 156 128 96
2.18479 -0.330831 7.12338 166 116 94
2.17698 -0.326229 7.12593 174 122 98
2.01904 -0.29528 7.0576 200 115 87
2.02924 -0.317073 7.28635 105 88 72
1.84825 -0.185949 7.41133 66 42 29
2.29054 -0.172773 7.14544 142 94 66
1.87518 -0.0935817 7.59173 89 61 33
2.17826 -0.0720414 7.17036 48 21 16
2.22326 0.0384943 7.2965 32 12 4
0.728556 0.445417 6.96455 136 42 32
1.59839 -0.836011 7.07727 150 128 100
1.69822 -0.765737 6.96164 147 124 96
1.65792 -0.819753 7.26736 139 115 90
1.9749 -0.580008 6.76509 198 174 164
1.94903 -0.569067 6.76426 102 74 65
1.98237 -0.55298 6.80706 62 41 28
1.99182 -0.55517 6.85565 164 138 130
1.74044 -0.554411 7.0138 173 136 122
1.84876 -0.479548 6.85439 220 200 189
2.15814 -0.330528 7.13352 202 146 118
2.02151 -0.297139 7.06826 194 110 80
2.01724 -0.320486 7.38419 77 70 50
2.12192 -0.290388 7.0839 88 34 12
2.14295 -0.144299 7.11989 128 82 66
1.97094 -0.16758 7.70927 167 153 130
0.790391 0.277443 7.22576 135 102 72
0.657047 0.560286 7.38591 129 104 93
0.737684 0.533405 7.00756 136 48 40
0.759747 0.706012 6.98362 66 22 14
1.63177 -0.801163 7.25705 98 63 30
2.10352 -0.363269 7.10812 152 124 107
2.02334 -0.361543 7.31904 132 114 101
2.00507 -0.313744 7.10191 150 52 34
2.04249 -0.327515 7.32573 97 90 74
2.03242 -0.30133 7.10152 182 95 68
2.02936 -0.323574 7.36707 152 124 112
1.84137 -0.226191 7.42415 126 81 60
1.99304 -0.189738 7.13421 127 101 88
0.852888 0.278651 7.9717 114 86 50
1.09924 0.265879 7.03062 128 44 31
-0.623293 0.758445 6.95823 132 58 24
1.61861 -0.797915 7.18053 168 138 112
1.62236 -0.654485 7.21939 105 90 46
1.77511 -0.570428 6.98877 144 88 75
1.96653 -0.407573 7.30361 88 90 56
2.02307 -0.325107 7.18775 108 24 16
1.74625 -0.294648 7.35638 72 51 35
2.12527 -0.135352 7.95046 58 45 24
0.755118 0.488671 7.58636 163 132 119
0.82142 0.511813 6.8124 205 176 166
0.947907 0.751724 6.97049 60 26 24
1.61516 -0.770711 7.01136 131 102 76
1.91126 -0.519227 6.76281 172 152 142
1.82669 -0.459766 6.91514 96 61 36
2.0645 -0.231227 7.30317 104 78 69
0.875691 0.295283 8.11307 102 78 40
0.881833 0.506226 6.86089 156 139 136
0.892516 0.568148 6.86063 138 121 116
0.767359 0.745534 7.10763 62 20 14
0.811545 0.736179 6.97543 124 96 92
1.84727 -0.451121 7.45903 166 111 84
1.95291 -0.326864 7.25132 111 96 80
1.9778 -0.348406 7.60263 68 43 14
1.75874 -0.195524 7.42853 160 129 111
2.05844 -0.0454016 7.76699 60 68 37
1.19654 0.464671 7.03161 152 135 118
0.819228 0.715917 7.01162 138 46 40
0.242065 -0.347068 7.56212 100 64 26
0.630574 -0.44301 7.51482 74 56 22
0.652378 -0.338009 7.49015 43 18 2
1.72979 0.350071 7.42236 158 107 102
0.849215 0.570111 6.8393 48 28 23
0.833672 0.739549 7.05767 172 150 146
-0.000102711 -0.253984 7.80396 148 132 104
0.450202 -0.0695653 7.43494 104 62 46
1.94712 0.433625 7.51084 230 211 206
1.0966 0.541504 6.87826 144 117 114
0.96677 0.573522 6.85625 150 70 68
0.961917 0.747998 7.07914 50 20 20
2.10962 0.33907 7.21014 128 84 64
0.564499 -0.281136 7.4756 168 122 104
0.190997 0.508574 7.58223 169 118 88
-0.548645 0.579165 6.8415 122 48 14
-0.557171 0.579079 6.8035 113 33 8
-0.425637 0.155509 6.86105 112 28 6
2.21622 -0.651506 6.49565 144 120 95
0.153456 -0.309436 7.81056 112 72 42
2.31682 0.118894 7.26627 139 118 106
0.745536 0.28824 7.11539 139 66 52
0.917536 0.284761 6.9054 157 108 86
0.736414 0.422239 6.9657 156 105 90
-0.539368 0.617811 7.79515 188 136 108
0.617889 0.499815 7.1133 96 62 45
0.694827 0.48257 6.83213 154 131 122
0.832585 0.519935 6.88205 210 184 176
1.99156 0.630701 7.66676 197 169 158
-0.980854 1.18647 7.71816 100 42 40
0.619035 -0.488913 7.51602 114 106 59
0.0936015 -0.327033 7.91801 96 70 32
0.18929 -0.120501 7.49167 116 74 53
0.0170635 0.0487927 7.88078 109 60 43
2.25431 0.0563989 7.42292 63 35 22
1.68385 0.174204 7.72784 164 132 110
0.609334 0.511377 7.17769 98 64 48
2.36471 0.660105 7.70985 205 184 178
2.17197 -0.629011 6.33021 147 118 89
2.56659 0.112039 7.55414 72 34 11
2.35753 0.111827 7.29625 171 150 132
2.09154 0.133817 7.35799 44 24 12
2.32087 0.12422 7.30581 45 25 12
1.67715 0.261302 7.83066 103 88 66
0.745701 0.294048 7.16386 130 53 40
2.4595 0.397244 7.38791 76 50 44
0.601391 0.523162 7.25562 98 64 48
2.28161 0.482535 7.22865 212 187 172
0.708051 0.531906 7.07698 98 74 66
2.29407 0.530766 7.32012 179 154 144
1.01752 0.524406 6.90787 154 136 128
1.03385 0.522942 6.76116 89 70 63
0.867532 0.563445 6.86918 59 42 34
1.04061 0.570442 6.90786 48 31 23
1.07923 0.576214 6.87416 208 194 192
0.228084 -0.458928 8.05245 150 96 66
0.704317 -0.340272 7.20002 81 65 27
-0.00287547 0.061947 7.9923 142 90 70
0.0422964 0.0697929 7.24924 135 94 80
0.170394 0.065239 7.43768 92 44 27
2.1902 0.021199 7.27085 128 82 60
1.67859 0.164287 7.63251 160 130 116
2.51537 0.214037 7.52402 55 28 5
1.91996 0.37986 7.32986 136 96 76
0.729756 0.430906 6.99504 156 118 108
0.817889 0.517126 6.92528 196 142 137
0.640724 0.556271 7.1099 156 129 118
1.05652 0.579954 7.08517 84 69 64
-0.538919 0.699502 6.95662 159 126 108
0.774193 0.739151 7.09151 66 23 15
0.171848 0.0186393 7.28244 91 36 22
2.01842 0.0773933 7.4368 154 122 102
1.70071 0.0972483 7.54413 61 34 12
2.65327 0.0972352 7.6586 148 124 99
1.92738 0.16791 7.6243 98 82 61
1.70287 0.271582 7.98842 115 100 78
0.72231 0.323311 7.44038 137 57 42
2.41327 0.393227 7.30981 47 24 21
0.734262 0.426375 6.95901 156 112 100
0.698032 0.518436 7.1377 89 64 55
0.880895 0.54861 6.8846 96 85 84
0.91361 0.583446 6.97121 134 110 106
2.21632 -0.644706 6.50045 96 70 54
0.101254 -0.198805 7.95931 138 93 72
1.73903 0.118602 7.6331 40 18 4
2.35256 0.0940967 7.31552 59 32 22
-0.382115 0.228988 7.04012 118 28 22
-0.628192 0.612143 7.86683 140 94 70
-0.142704 0.603446 7.47156 47 14 8
0.791277 0.539579 6.87676 164 84 79
1.10152 0.569627 6.95786 143 114 114
0.974319 0.576092 6.88654 159 102 94
0.273466 -0.111679 7.26355 70 26 10
0.0742771 -0.0857597 7.94467 86 42 21
0.14001 0.0251274 7.38643 97 44 28
2.10909 0.0316494 7.19885 108 71 54
1.12121 0.291756 7.03007 136 37 26
0.715365 0.332804 7.1322 145 90 68
0.584521 0.57808 7.34131 180 160 152
0.772176 0.794386 7.08794 134 104 97
0.543834 -0.433836 7.36835 122 73 54
0.538329 -0.328036 7.45559 56 18 8
0.263323 0.0862486 7.55062 184 135 110
1.74084 0.0978255 7.73746 52 29 13
0.559175 0.492884 8.15274 140 102 82
0.74378 0.395526 6.67119 152 124 117
1.94828 0.519744 7.2263 36 18 15
0.910177 0.561217 6.94144 135 110 110
0.242619 -0.0482084 7.23699 116 68 53
0.836852 0.253269 7.85602 98 76 42
1.266 0.471846 7.07286 106 88 74
1.22297 0.486745 7.02269 118 102 90
1.24536 0.506659 7.04795 131 118 110
0.70078 0.52862 7.0321 115 88 78
1.06532 0.526976 6.8678 159 144 142
2.32269 0.08801 7.21303 68 43 26
2.16613 0.174703 7.25406 118 105 90
0.880188 0.510061 6.85476 150 138 136
0.814462 0.761701 7.08436 115 84 81
0.824983 0.764666 7.08472 148 121 116
1.66334 0.0550761 7.67284 113 83 55
1.06287 0.520932 6.85049 150 137 134
0.93838 0.251523 7.02664 105 80 58
0.687383 -0.252266 7.59566 115 94 57
0.27321 -0.100177 7.32562 74 28 10
0.827839 0.531138 6.92471 182 160 151
1.01045 0.523496 6.85421 152 132 128
1.71215 0.094355 7.59058 58 34 11
1.65181 0.157602 7.62358 114 82 54
1.64606 0.321253 7.51433 91 66 44
1.90838 0.418173 7.39268 196 180 175
-0.10446 0.599671 7.44126 72 28 16
0.82799 0.531052 6.9291 182 160 151
0.277621 0.476313 7.70329 184 132 108
1.93548 0.426366 7.44802 230 218 214
2.06135 -1.04198 7.0225 210 158 136
2.02533 -1.04044 7.07772 107 77 43
2.04404 -1.01951 7.01389 183 134 108
1.7015 -1.05425 7.38919 119 100 57
1.67404 -0.649975 7.01815 100 88 74
1.94949 -0.510277 6.82447 68 49 42
1.90065 -0.451143 7.43563 151 131 89
1.85161 -0.451294 7.52604 176 152 112
2.13837 -0.39669 7.20399 152 130 118
0.0588564 -0.257211 7.84035 65 30 10
1.72308 -0.182699 7.46154 56 30 9
-0.00666774 -0.0654415 7.06785 225 172 136
-0.086244 -0.0385787 7.19748 82 36 15
0.907709 0.455242 6.79122 46 32 20
0.835565 0.750872 7.08202 154 135 132
0.793657 0.791219 7.04379 93 60 55
2.05499 -1.08725 7.08261 164 148 110
2.07563 -1.04985 7.04501 192 140 117
2.00642 -1.01911 7.05355 158 127 96
2.04428 -1.02089 7.07651 140 86 59
1.69966 -1.0526 7.38726 119 100 57
1.70353 -1.05501 7.41035 132 116 72
3.44177 -1.78757 10.5926 136 112 68
1.70869 -0.89543 7.46101 168 150 108
1.68849 -0.816998 7.41842 132 80 50
1.6793 -0.793416 7.43281 128 89 52
1.79869 -0.565416 6.86075 125 50 42
1.82481 -0.483668 6.90901 154 124 113
1.81446 -0.50042 7.44726 169 148 104
1.87502 -0.4495 7.39705 111 78 42
1.83856 -0.437391 7.51372 110 72 41
1.72987 -0.0128522 7.51948 45 25 10
1.03669 0.54564 6.95757 159 142 134
-0.526471 0.499511 6.77163 60 33 42
0.852435 0.551188 6.85574 132 116 110
1.03299 0.536648 6.81058 89 76 72
2.02185 -1.03918 7.0747 112 84 50
2.0404 -1.01895 7.07369 136 85 56
1.74113 -1.06145 7.42192 105 90 48
1.67064 -0.906203 7.40712 124 77 32
1.6843 -0.797047 7.44144 132 99 60
0.412731 -0.677636 7.40868 106 68 50
1.67796 -0.709392 7.30787 82 72 50
1.64817 -0.686357 7.29531 128 116 88
1.80825 -0.501573 7.4324 166 154 106
1.81113 -0.47044 7.47587 120 91 51
1.83116 -0.451662 7.49669 167 153 108
1.82702 -0.434993 7.48926 96 56 26
-0.360131 -0.293288 7.25527 121 68 52
2.15298 -0.117349 7.1357 40 12 6
1.0182 0.538787 6.88768 158 142 134
-0.618955 0.533381 6.70552 37 24 35
1.99252 -1.01119 7.04378 154 130 100
1.72316 -1.06419 7.42647 112 94 51
1.83344 -1.05297 7.48122 100 86 57
1.71634 -0.897561 7.48003 168 158 114
1.69131 -0.794856 7.44397 130 68 40
0.346223 -0.611577 7.38839 182 120 100
1.80739 -0.576526 6.87644 116 25 16
1.83784 -0.492201 7.51183 119 71 34
1.82491 -0.441713 7.39434 160 110 87
2.13166 -0.413656 7.19862 105 92 78
1.84025 -0.407242 7.34641 146 129 94
0.834201 0.539368 6.84506 58 46 40
-0.53922 0.505254 6.76369 44 21 30
0.960097 0.783177 7.05582 64 34 32
1.73275 -1.05963 7.43298 96 69 30
1.71857 -0.80395 7.4987 130 79 46
1.68052 -0.752774 7.39277 164 156 114
1.63372 -0.663535 7.26195 88 71 39
0.347366 -0.614066 7.405 180 118 98
1.85817 -0.491617 7.56103 120 95 54
1.86652 -0.413495 7.39825 78 46 20
-0.550027 -0.00104148 7.37321 92 54 30
2.04564 0.555634 7.33952 142 113 108
-0.620764 0.535126 6.7164 26 18 32
1.8254 -1.05021 7.46813 114 101 69
1.66574 -0.906402 7.39996 128 86 39
1.74623 -0.703948 6.93227 134 87 66
1.68753 -0.793399 7.4393 129 73 42
1.63836 -0.706749 7.24519 92 80 58
1.73466 -0.582164 6.94861 100 20 16
1.79331 -0.43773 7.34044 147 99 76
-0.593235 -0.109809 7.32193 112 85 60
0.883097 0.523634 6.89611 142 129 126
1.85652 -1.06397 7.52623 109 94 64
0.438435 -0.533111 7.42506 151 96 80
1.89222 -0.502254 7.43225 118 64 32
0.600387 -0.434658 7.50745 30 10 6
1.99149 -0.417494 7.29651 72 62 42
1.89099 -1.00727 7.38109 138 122 84
1.6749 -0.800113 7.42887 154 129 87
1.64505 -0.743228 7.34524 164 158 112
-0.368161 -0.408538 7.16727 174 117 100
-0.0436415 0.00382335 7.15393 178 118 94
1.7422 -0.0318425 7.42773 148 117 96
1.86075 -0.697635 6.81797 179 137 110
1.71386 -0.60667 6.98847 100 72 60
1.94261 -0.535673 6.81196 116 92 85
1.7372 -0.532649 6.98749 142 114 98
2.29508 -0.506758 7.28346 32 12 4
0.943887 0.307531 6.94318 126 76 63
1.85739 -1.06376 7.52026 108 96 60
1.74769 -0.766359 7.02223 106 20 8
1.86516 -0.699973 6.82748 170 129 102
0.799636 0.354554 6.85458 92 30 26
1.60641 -0.758852 7.19721 106 82 54
1.70216 -0.691759 6.87908 154 108 81
-0.276765 -0.538657 7.32291 50 28 6
0.940244 0.244288 6.93904 95 72 50
1.73181 0.356622 7.03358 119 84 68
-0.545814 0.556512 6.78789 84 2 4
1.70972 -0.613733 6.98825 107 78 66
-0.568658 0.585985 6.83949 120 23 8
1.66924 -0.6824 7.3666 130 121 76
1.73589 -0.581085 6.95225 113 24 20
-0.586264 0.361662 6.65779 22 16 30
0.855665 0.534661 6.86958 100 86 80
1.66243 -0.879758 7.24871 144 121 100
1.72712 -1.06349 7.43078 99 74 33
0.873823 0.547249 6.91906 77 62 56
0.63803 -0.433004 7.49841 138 133 86
0.95022 0.43373 6.80471 45 10 4
-0.675792 0.712931 7.00865 83 6 8
-0.0315289 -0.275246 7.73391 157 146 113
0.686219 -0.243825 7.4742 106 90 60
-0.169522 -0.266595 7.41626 100 64 36
0.730245 -0.0748147 5.48467 96 65 46
2.4977 -0.697818 8.47492 144 106 75
1.77197 -0.1686 7.3997 49 12 5
2.37971 0.551798 7.36146 166 140 121
1.70039 -0.692141 6.87646 148 102 74
1.77631 -0.389764 7.46653 100 54 26
2.06308 0.107263 7.21478 175 148 134
1.71741 -0.00654135 7.5865 139 114 95
1.77535 -0.38566 7.44657 86 32 8
1.96994 0.0622951 7.28495 164 110 88
2.11481 -1.04687 6.98779 155 133 94
2.07946 -0.984494 6.96357 36 18 15
1.98945 -0.545805 6.80984 66 51 44
1.98137 -0.529754 6.84057 216 197 192
1.98162 -0.527735 6.80283 97 78 72
1.73961 -0.534306 6.99121 138 106 88
1.95764 -0.521162 6.79783 218 200 194
1.97278 -0.507653 6.79182 172 150 144
1.96125 -0.506807 6.8222 73 53 48
1.77226 -0.180578 7.46591 163 130 110
2.19733 -0.0921023 7.11337 112 65 40
2.09028 -1.10603 6.97882 223 178 154
2.08513 -1.0133 7.00881 194 146 124
1.75169 -0.631698 6.86975 136 90 68
1.94896 -0.521193 6.78629 212 194 188
1.95445 -0.507623 6.81732 70 49 43
2.05316 -1.1072 6.97464 215 172 151
2.06338 -1.04492 7.02506 184 130 107
2.05554 -1.02659 7.02867 156 106 76
2.08916 -0.379657 7.12931 164 142 134
1.7422 -0.69118 6.92969 136 92 70
1.75876 -0.801557 7.10314 148 120 98
1.97989 0.536486 7.30044 28 9 6
1.64475 -0.706356 6.89296 98 54 26
1.07898 0.518876 6.86251 137 122 120
1.72911 -0.803398 7.04463 154 136 116
1.71282 -0.71057 7.44868 102 88 50
1.7663 0.0448259 7.56159 144 112 88
0.860559 0.636486 7.07889 145 109 104
0.338827 -0.658269 7.39078 58 18 4
2.16295 -0.45053 7.07207 158 132 116
1.70864 -0.61199 6.98383 105 79 70
1.92466 -0.481289 7.48065 97 46 15
0.240836 -0.35092 7.56164 96 64 32
-0.181996 -0.269865 7.29701 116 74 48
0.318718 -0.663453 7.42614 94 50 34
-0.416925 -0.507003 7.17058 128 84 64
-0.428863 -0.546229 7.1604 94 59 38
0.35425 -0.697162 7.4161 106 74 56
-0.237179 -0.41617 7.23026 105 40 22
0.68018 -0.244423 7.49061 96 68 38
-0.352816 0.0487485 7.28631 74 33 19
0.699969 -0.267408 7.52648 128 107 75
-0.228456 -0.408614 7.21773 94 32 14
1.98392 -0.406665 7.36434 116 114 76
1.71687 -0.241556 7.34923 62 32 16
-0.232946 -0.415735 7.22071 91 28 11
1.99144 -0.402593 7.37583 114 114 78
1.9152 -0.452963 7.46823 106 70 38
-0.00766165 -0.259988 7.8446 157 144 120
0.937694 0.459085 6.8814 69 51 40
1.67445 -0.558574 6.98617 151 123 110
1.91712 -0.34832 7.4589 153 135 102
1.73504 -0.255249 7.41957 98 69 55
1.75059 -0.0411256 7.48107 105 79 48
2.10892 -1.05039 7.04941 196 146 122
2.0136 -0.411093 7.41276 115 113 79
1.68622 -0.256376 7.32899 146 116 100
1.75114 -0.167575 7.45 63 21 0
2.09685 -1.02 7.02187 181 132 108
1.92157 -0.502793 7.45005 128 99 56
1.75341 -0.246163 7.463 127 97 80
1.77955 -0.55526 6.94798 48 4 2
2.89442 -0.476478 8.70191 90 40 24
1.76195 -0.552547 6.9178 43 4 1
1.71356 -0.25795 7.32872 166 134 118
1.77091 0.420795 7.37831 108 86 82
-0.411668 0.564044 7.44934 188 135 108
1.07042 0.578697 6.83724 170 154 150
2.02228 -0.620955 6.74149 148 132 128
2.19156 -0.229524 7.14203 84 54 42
-0.55278 0.000158349 7.37668 126 92 71
-0.592199 0.0953691 6.54659 122 54 56
-0.617853 0.535338 6.70384 35 22 37
-0.683249 0.608541 6.70141 62 0 0
2.0425 -0.369714 7.08969 116 15 11
-0.526837 -0.216791 7.33017 110 62 44
1.79809 -0.168546 7.38991 46 13 2
-0.537863 0.504642 6.75885 43 18 18
-0.653868 0.957852 6.79367 124 24 23
-0.589869 0.148266 6.50647 134 72 74
2.0811 0.331014 7.17089 158 111 87
1.93649 -0.693349 6.78433 137 89 64
2.02349 -0.127146 7.17572 40 27 26
-0.559685 -0.00240724 7.39956 102 65 44
1.93578 0.0802087 7.34766 39 18 8
1.89554 0.309791 7.23863 114 66 44
-0.648861 0.40008 6.6124 50 42 51
-0.639457 0.948573 6.76391 122 22 21
2.10575 -1.03515 7.05642 158 112 88
2.01446 -0.354274 7.2856 150 124 112
1.77241 -0.165104 7.44811 47 11 2
2.06955 0.107195 7.23867 174 150 138
-0.582544 0.393267 6.69102 22 19 35
1.9755 0.185526 7.13723 138 98 76
1.70522 0.0750564 7.70393 138 86 60
1.98429 0.46835 7.2731 119 28 28
-0.586803 0.74232 6.89514 143 76 26
1.8681 -0.632535 6.43543 205 177 161
1.86994 -0.633627 6.42882 205 169 154
