ply
format ascii 1.0
element vertex 1371
property float x
property float y
property float z
property uchar red
property uchar green
property uchar blue
end_header
1.24412 0.451723 7.44927 148 160 117
1.0159 0.790395 6.94755 82 36 14
1.19616 0.865303 7.10489 30 12 8
1.16453 1.00983 7.18929 94 72 71
1.28588 1.09664 7.51643 73 41 32
1.02857 1.14091 7.22916 62 19 12
1.38671 0.34334 7.38967 152 166 122
0.569879 0.482778 7.36436 150 137 92
0.915784 0.695771 6.6743 102 80 52
1.04195 1.14172 7.23925 98 66 59
1.40539 0.413943 7.30841 155 166 122
1.33264 0.573252 7.35969 40 20 12
0.925144 0.671712 6.63442 14 6 2
0.680252 0.703142 7.11292 70 40 20
0.731369 0.71387 7.06102 42 30 22
1.0508 0.863314 7.03465 82 56 51
1.32615 0.399147 7.37339 118 128 90
1.16346 0.438668 7.56599 156 142 110
0.905439 0.550566 6.81134 74 68 39
0.671748 0.617968 7.13243 106 96 82
1.33596 0.649082 7.15772 116 71 46
0.698275 0.709588 7.07941 66 36 19
1.31839 0.685139 7.13023 148 122 112
0.916429 1.17122 7.29179 126 90 83
1.03389 1.22152 7.3025 69 26 14
1.02889 1.24227 7.33381 87 42 30
1.11265 1.25568 7.36409 96 63 58
1.02201 0.177572 6.97051 95 103 53
1.29132 0.272967 7.08044 88 94 77
1.32214 0.680378 7.17025 62 29 10
0.571034 0.497628 7.13401 86 60 34
1.36949 0.622002 7.1809 134 86 71
0.971452 0.730153 7.16449 65 36 28
1.02941 1.22208 7.30613 71 26 14
1.46209 0.955009 6.84231 88 58 40
1.4255 0.15322 7.03508 71 78 52
0.639921 0.717603 7.1131 152 112 86
1.07018 0.747033 6.90068 41 13 8
1.03004 1.16069 7.25106 52 17 11
1.41248 0.410437 7.31306 149 150 112
1.22199 0.742742 6.95977 116 95 82
1.15629 1.08012 7.2366 124 94 93
1.0869 1.23453 7.33187 95 58 51
1.44091 0.348001 7.34978 154 159 115
1.13077 0.440711 7.22071 159 160 121
0.563761 0.490408 7.39655 154 150 100
1.41503 0.361246 7.37387 48 39 14
1.42216 0.97496 6.95626 120 98 86
1.06431 1.20864 7.27906 74 27 20
1.11255 1.24263 7.34914 96 60 54
0.60391 0.650569 7.05528 158 142 121
0.656061 0.734946 7.06956 102 54 30
0.586628 0.491566 7.12325 145 136 92
1.40852 0.118217 7.11979 85 89 62
0.599113 0.491335 7.09958 128 118 80
0.618177 0.489107 7.36803 126 122 88
1.15736 0.447678 7.23739 126 104 68
1.3114 0.691281 7.32912 92 64 46
1.18445 0.959877 7.15145 30 14 13
1.46575 0.265661 7.34552 74 67 27
1.24659 1.01121 7.25434 54 20 15
1.13821 0.428249 7.2203 152 152 118
1.17977 0.428716 7.22703 131 129 92
1.16801 1.09534 7.79034 111 86 83
0.985328 0.757232 6.67665 153 112 90
1.0467 1.06106 7.17593 122 96 95
0.918326 1.18426 7.30442 112 86 86
0.908171 0.765818 6.87059 130 111 79
1.04973 1.00057 7.12401 100 60 51
1.25526 1.07011 7.38171 58 22 10
1.33634 0.688876 7.41229 118 90 79
0.922713 1.17225 7.27075 101 76 72
1.21617 0.433972 7.35613 148 164 120
1.19145 0.73481 6.9984 60 40 27
1.44805 0.0777196 7.16595 94 97 71
0.988587 0.656909 5.88044 99 84 59
1.3625 0.744301 7.25688 152 146 130
0.615167 0.80822 7.32062 136 116 90
1.35959 0.742124 7.23126 156 148 135
0.625541 0.792308 7.24418 73 47 24
1.32894 0.603836 7.21441 112 87 71
0.685142 0.666689 6.83707 142 110 88
0.85424 0.678683 6.51866 78 68 58
1.29436 1.05221 7.51739 106 83 72
0.9446 0.868619 6.27239 102 82 58
0.583814 0.485151 7.33223 136 116 74
1.30627 0.966067 7.414 108 84 74
1.22481 1.09411 7.38401 64 30 26
0.74663 0.687743 6.99787 56 46 30
0.715955 0.700746 7.0997 88 84 92
1.24216 0.755274 6.99843 144 120 116
1.29281 0.792532 7.135 52 36 26
1.05119 0.865516 7.02404 99 76 74
0.62747 0.541379 7.18841 137 122 76
1.31465 0.500808 7.40455 119 92 64
0.202267 0.515772 8.78789 136 130 87
0.742592 0.673218 6.9842 110 106 87
1.31964 0.680975 7.06942 62 30 14
1.31515 0.672528 7.23296 110 82 68
1.31783 0.70839 7.1203 154 128 115
1.43773 0.945552 6.85608 156 148 135
1.33733 0.835201 7.28319 151 143 129
0.831983 0.191133 7.21477 108 116 82
1.26218 0.303254 7.08879 86 92 76
1.43763 0.347457 7.37486 152 152 108
1.42792 0.374006 7.31676 56 38 7
1.01442 0.43958 6.96239 98 97 64
0.567688 0.462368 7.19468 134 119 82
0.573512 0.495811 7.12978 78 56 30
0.588321 0.509288 7.45528 151 137 99
0.98018 0.527107 6.84087 114 120 90
1.42747 0.517261 7.19275 129 92 76
0.62281 0.563129 7.07414 142 138 92
0.98281 0.571186 6.78624 116 126 98
0.761968 0.596688 6.77945 74 75 52
0.907006 0.594742 6.78479 105 105 78
0.597527 0.622813 7.39777 124 118 95
0.980585 0.609522 6.75355 112 122 93
0.980375 0.614199 6.74729 116 126 96
1.39865 0.605812 7.29901 89 98 59
0.974274 0.659059 6.71822 107 119 92
0.988955 0.727129 7.01387 95 68 61
0.977428 0.736216 6.72574 131 97 70
0.974881 0.78055 6.63995 63 66 46
0.93078 0.833765 6.99673 160 114 103
1.15391 0.893988 7.07133 116 83 77
1.25459 1.00659 7.31067 124 98 96
1.10071 1.03647 7.16574 118 71 65
1.43523 0.953582 6.82714 161 143 133
1.04954 1.0693 7.19641 63 26 22
1.46404 0.95281 6.84006 122 99 79
1.22678 1.08511 7.36596 58 27 25
1.24466 1.08255 7.35495 46 16 10
0.900675 1.1102 7.25465 114 88 84
1.03923 1.08637 7.19821 54 14 6
1.24497 1.16671 7.53865 81 44 37
1.21348 1.15716 7.42614 129 99 97
1.04499 1.13716 7.23576 125 95 92
0.920832 1.17966 7.31032 56 16 12
1.04508 1.23884 7.3257 80 36 24
1.46811 0.265753 7.33229 78 74 31
1.46068 0.363539 7.35734 132 129 92
0.926881 0.546405 7.21053 30 20 2
0.966971 0.570441 6.83231 106 117 86
0.973553 0.609613 6.77275 102 113 83
1.36642 0.720438 7.27051 87 63 51
1.33759 0.722218 7.18592 158 130 120
1.06853 0.754356 6.95841 42 18 10
0.968827 0.747446 6.6322 102 110 88
0.976632 0.761202 6.69379 162 118 92
1.06663 0.781129 6.97401 86 49 33
0.974531 0.78026 6.6398 60 62 43
0.930227 0.833614 6.99745 160 114 103
1.0547 0.824698 7.00272 88 51 45
1.05228 0.862588 7.03367 114 90 84
1.27069 0.929449 7.27516 98 68 66
1.27051 0.988725 7.29689 105 74 70
1.25361 1.00368 7.31504 122 98 97
1.26092 1.06472 7.37658 48 14 5
1.05412 1.06838 7.17442 62 26 22
1.23705 1.0783 7.33021 123 96 93
0.90151 1.09629 7.23681 130 95 86
1.45953 0.958878 6.83158 100 68 49
1.45374 0.96048 6.8261 114 90 75
1.03937 1.08288 7.18961 51 14 5
1.03086 1.16816 7.2766 54 16 10
1.10471 1.24918 7.38135 95 62 56
1.08849 1.25556 7.35365 122 86 78
0.810491 0.159343 7.21907 94 103 62
1.29246 0.27245 7.08012 88 94 76
1.26351 0.301954 7.09176 85 91 74
0.56284 0.463895 7.21095 140 124 84
0.556237 0.487579 7.17714 98 80 47
0.56821 0.554484 7.3853 154 150 103
0.595203 0.575423 7.06151 144 100 76
0.97916 0.571617 6.7932 112 122 92
0.90318 0.594859 6.79966 100 100 70
0.651421 0.737491 7.08455 111 65 37
0.984062 0.726684 7.02503 96 68 60
1.3617 0.733275 7.38499 114 96 86
0.930722 0.833207 6.99687 139 94 84
1.05522 0.824551 7.00168 92 57 52
1.25371 1.00463 7.31014 115 90 88
1.04746 1.0027 7.13542 105 60 52
1.25955 1.06238 7.35501 46 15 6
1.41324 0.960816 6.92024 100 82 72
1.23525 1.07842 7.35118 121 93 91
1.2268 1.07956 7.33231 58 26 24
1.45838 0.958306 6.83571 90 53 30
0.900371 1.10763 7.25223 116 90 84
1.22998 1.08679 7.32483 54 22 18
1.03306 1.14037 7.2437 73 24 15
1.05063 1.1348 7.22389 94 56 52
0.995967 1.25532 7.34371 104 58 40
1.09389 1.25392 7.34723 120 82 76
0.998993 0.439 6.97915 59 64 18
0.576427 0.553316 7.36389 153 152 101
0.633569 0.569294 7.04983 145 142 95
0.599224 0.570993 7.04687 145 100 76
0.98803 0.727954 6.97735 62 36 28
0.967255 0.716163 6.67354 112 120 94
0.984693 0.735196 6.70565 143 103 74
1.33712 0.736287 7.07437 100 68 62
1.1804 0.824297 7.0613 24 6 2
1.42449 0.972541 6.92972 150 135 126
1.02555 1.15018 7.27426 74 24 14
1.17698 1.20253 7.39205 140 114 110
1.32176 0.242114 7.07466 76 84 62
0.917901 0.542227 7.18905 36 15 4
0.619292 0.669647 7.06133 160 134 110
0.994053 0.712912 7.00408 20 6 2
1.35478 0.729344 7.29688 72 47 37
0.674632 0.784529 7.12847 122 92 69
1.04051 0.758293 7.00128 41 14 8
0.926976 0.833002 6.99968 132 86 74
1.05181 0.865956 7.02822 108 86 80
0.894329 1.023 7.16457 118 96 90
1.04589 1.07005 7.18218 111 86 82
1.21538 1.15447 7.40146 117 88 86
1.03369 1.13817 7.22571 68 22 16
1.31076 -0.284541 7.34389 74 88 45
1.22695 0.334747 7.10002 70 74 62
0.626489 0.540453 7.31528 60 32 16
0.591437 0.55388 7.32533 151 146 96
0.627309 0.631821 7.11375 124 106 70
0.970272 0.726266 6.99506 24 9 7
1.04667 0.722842 6.93062 22 6 5
0.94732 0.751765 6.82131 176 130 98
1.05399 0.75317 7.03488 36 12 10
0.928298 0.834008 6.99623 128 80 70
1.13986 1.16025 7.31592 96 64 64
1.11436 1.24626 7.36611 94 54 46
1.46657 0.248291 7.50332 94 88 46
0.635874 0.630549 7.09119 122 106 68
1.0429 0.721585 6.92135 20 6 4
0.559811 0.45148 7.18063 80 60 40
0.590013 0.542083 7.31587 150 152 96
0.615892 0.627206 7.13663 112 100 65
0.927666 0.812036 7.39208 164 121 104
1.21163 0.808222 7.04868 38 14 12
1.22569 0.332945 7.11972 87 90 78
0.798838 0.686649 6.82587 150 130 116
1.18817 0.789229 7.0416 41 10 3
1.02507 0.946207 7.05228 106 58 48
0.256622 0.393578 7.2701 80 60 10
0.263441 0.393014 7.2705 95 68 23
0.606258 0.53988 7.07596 136 124 80
1.38831 0.699335 7.33561 114 100 86
1.04693 1.15279 7.22596 76 42 38
0.842446 0.677137 6.76582 116 88 68
1.32127 0.730611 7.13431 73 38 29
1.17789 0.912194 7.12597 111 88 86
1.02559 0.945072 7.04914 94 48 38
0.915901 1.18059 7.307 110 81 77
0.981015 0.920999 7.06475 30 4 2
0.91586 1.17964 7.30124 90 58 52
0.627408 0.565389 7.06939 147 145 92
1.03071 1.15998 7.24879 46 15 8
0.600591 0.538195 7.08411 128 114 74
0.891195 1.1112 7.27144 104 70 64
1.04339 1.14425 7.23745 111 82 77
1.0053 0.17013 7.01586 108 116 65
1.40354 0.351352 7.3432 32 31 6
0.535881 0.573771 7.13799 146 122 80
0.617557 0.668823 7.05682 160 143 118
0.713111 0.821804 7.17976 81 52 44
0.597216 0.763328 7.34481 86 56 30
1.44147 0.372937 7.31876 100 75 44
1.1866 1.19486 7.41461 120 91 86
0.605864 0.636418 7.04996 153 134 108
0.569295 0.574102 7.07175 152 140 89
0.583229 0.571688 7.07267 148 100 70
1.42065 0.302461 7.36444 118 128 82
0.47995 0.864486 8.11654 104 83 54
0.564226 0.573358 7.08455 146 120 82
0.563541 0.576962 7.08217 145 124 84
1.18791 1.20271 7.42221 71 45 41
1.22709 1.17359 7.4964 78 52 50
1.24145 1.15363 7.50142 90 59 54
0.645915 0.627336 7.06952 135 120 82
1.44066 0.34536 7.3583 136 138 94
0.708809 0.528162 7.07726 102 84 47
0.899162 1.02184 7.17648 44 12 10
1.03645 1.16482 7.25398 59 19 10
1.33793 0.387613 7.37708 151 162 121
1.05734 1.20916 7.26181 100 61 53
1.03827 1.15126 7.25714 97 66 60
1.02637 1.15886 7.24294 50 14 6
1.02026 1.15617 7.23579 47 10 4
1.46864 0.265362 7.33164 100 99 52
0.535032 0.45084 7.31722 104 84 61
1.40873 0.501376 7.18529 128 85 68
0.935297 0.662845 6.71592 92 98 60
1.36271 0.698622 5.62771 78 52 36
1.15575 1.09466 7.25739 132 105 104
1.66709 -0.0175572 7.00209 156 158 110
0.57772 0.49507 7.11991 78 55 31
0.990863 0.718146 7.0113 32 18 10
1.4117 0.971256 6.92376 72 48 32
1.44602 0.957363 6.86849 160 143 136
1.36714 0.659564 5.58122 34 16 2
1.28235 0.877104 7.23593 107 85 84
1.08495 1.03996 7.16614 116 69 62
1.15261 1.0849 7.27175 122 94 94
1.24183 1.14518 7.43914 113 84 80
1.66445 0.0105406 6.9991 54 58 32
0.53975 0.462933 7.26296 158 145 103
0.936228 0.666323 6.707 94 100 62
1.04368 0.759331 6.98614 48 18 8
1.18113 0.966029 7.17896 32 12 10
1.61764 0.00140984 7.0477 134 136 89
0.900371 0.552263 6.82074 98 102 74
1.03484 0.728788 7.00248 66 42 37
1.06478 0.754293 6.98625 40 13 6
1.22341 0.947312 7.23827 38 12 6
0.754802 0.52858 6.96308 158 148 102
0.978093 0.659724 6.69893 100 108 80
1.67243 -0.0272646 7.01151 160 164 115
0.894711 0.945408 7.11501 18 6 4
0.909518 1.18136 7.31436 84 54 50
0.889974 0.749008 6.67672 144 106 77
0.891053 1.09971 7.2567 92 43 32
0.985621 0.237503 7.4641 138 143 104
0.95418 0.306458 7.14747 164 166 120
1.11254 -0.0666264 7.31526 132 140 94
1.36762 0.227782 6.39407 140 144 96
1.09174 0.160318 7.29933 148 150 110
0.654094 0.903651 7.32245 120 94 70
0.682178 0.927146 7.31185 126 111 85
1.07435 0.108293 7.49585 148 153 107
0.476055 0.544048 7.87721 134 124 102
0.63348 0.79704 7.25111 142 117 94
1.28933 1.105 7.5636 86 60 49
1.37181 0.219389 6.42109 108 111 62
1.15411 0.298937 7.16402 146 153 112
0.648644 0.758934 7.13437 154 136 112
0.655113 0.919338 7.33157 51 26 11
1.24752 1.15991 7.51055 94 62 53
1.10678 -0.0885222 7.36987 133 140 95
1.06014 0.0795371 7.59472 140 146 102
1.08021 0.138687 7.40046 132 134 96
1.152 0.318072 7.11332 126 132 102
1.17345 1.21033 7.4339 96 64 62
1.10774 -0.088611 7.37018 143 150 102
1.05666 0.0438308 7.48899 62 72 34
1.09603 0.163739 7.25427 143 148 104
1.16223 0.33321 7.01052 112 118 90
1.03321 -0.0183277 7.70944 74 86 44
1.08587 0.135379 7.35908 143 148 104
0.990477 0.32173 7.34079 156 162 116
0.897937 1.10345 7.25746 103 68 64
0.228841 0.382235 7.33694 108 88 39
1.11856 -0.443623 7.52027 81 84 30
1.31659 -0.278353 7.32752 84 96 47
1.67362 -0.0230051 7.00164 126 129 87
1.6431 0.00977925 7.00174 136 134 100
1.62482 0.00146485 7.05167 132 132 89
1.61778 -0.00214462 7.06628 77 78 36
1.56726 0.0229489 7.06667 146 146 104
0.801511 0.050352 7.29064 108 116 67
1.22906 0.3058 6.62593 96 94 88
1.32189 0.240746 7.08236 80 87 66
0.564089 0.635029 7.13745 94 66 48
0.664967 0.685122 7.03858 132 100 78
0.997646 0.647925 6.84429 68 68 55
0.981081 0.656626 6.70252 100 111 85
1.33717 0.714485 7.11619 92 65 56
0.975426 0.746937 6.61666 108 114 92
0.876921 0.841016 7.01762 121 88 78
0.870226 0.845536 7.04628 45 11 4
0.86713 0.84602 7.03657 114 84 77
0.918102 0.884161 7.03615 114 66 60
0.880907 0.896488 7.08089 30 4 0
0.819612 0.909193 7.10321 132 92 74
0.893786 1.03426 7.18453 116 90 88
1.23627 1.08352 7.35297 114 88 86
1.15957 1.07719 7.23989 124 94 91
1.23555 1.15719 7.5085 124 94 88
1.24536 1.16328 7.53751 73 42 33
1.22228 1.15227 7.41997 81 51 48
1.22462 1.17329 7.50283 92 68 64
1.20545 1.16087 7.43633 56 26 24
1.04254 1.15529 7.2568 113 82 79
1.19096 1.20177 7.39182 72 44 39
1.05247 1.2372 7.33211 118 71 60
1.08678 1.23806 7.35678 88 46 40
0.995532 1.25437 7.34128 90 43 24
1.09291 1.25175 7.34194 114 76 68
1.31522 -0.278927 7.33148 73 88 40
1.62813 0.00491339 7.0356 157 158 112
1.61142 0.00300298 7.06188 152 153 109
1.52582 0.0575717 7.02903 112 114 69
1.35551 0.23412 7.07729 81 90 70
0.584784 0.626048 7.2223 118 100 61
1.04707 0.675854 7.03403 88 73 64
1.05902 0.724232 6.90653 44 18 10
0.975648 0.747158 6.61497 108 114 92
1.06256 0.754729 6.98011 42 16 6
0.876183 0.844097 7.03599 44 12 5
0.959607 0.8122 6.59754 92 98 80
0.915757 0.885022 7.04217 111 64 58
0.944415 0.870241 6.51165 96 102 78
1.17978 0.95714 7.16662 46 20 18
1.1656 0.966358 7.15543 48 14 8
0.898601 1.02365 7.18176 47 13 10
0.929029 0.913507 6.48233 85 92 69
0.916379 1.17161 7.2924 125 82 76
1.22805 1.17125 7.48648 91 68 64
1.14599 1.15327 7.30304 122 93 91
1.02376 1.22691 7.32643 82 33 21
1.05101 1.23713 7.33874 118 71 60
1.66338 0.0027699 7.03052 44 53 24
1.01992 0.173681 6.98169 99 104 54
0.979449 0.558451 6.84256 23 30 12
0.936669 0.588748 7.04787 66 72 60
0.631478 0.674127 7.09785 90 56 34
0.965856 0.791207 6.57848 104 107 86
0.869464 0.84365 7.03052 115 85 77
0.87063 0.846639 7.05133 48 14 7
0.919536 0.882639 7.03045 98 51 42
0.882844 0.895568 7.07654 30 4 0
0.860007 0.902336 7.08417 27 8 2
1.38043 0.842628 6.80719 82 72 54
1.18217 0.962719 7.16157 32 14 12
0.893359 1.01954 7.16875 124 99 89
0.89982 1.02528 7.18325 50 14 8
0.903543 1.09489 7.23121 128 86 78
1.15846 1.07808 7.24003 114 84 82
1.15291 1.09203 7.25802 110 86 82
0.919342 1.18223 7.30063 100 73 70
1.04059 1.23894 7.33373 84 42 35
1.01555 0.17278 6.99278 96 103 53
0.904897 0.796378 6.92355 100 64 52
0.970775 0.790074 6.56969 104 107 86
0.864085 0.844778 7.03965 111 82 73
0.931395 0.833664 6.99349 142 93 80
1.16372 0.966605 7.16081 49 16 10
1.2411 1.08356 7.37138 43 16 14
1.21315 1.18667 7.53524 84 58 54
1.05102 1.23279 7.31311 112 70 62
0.968645 0.5556 6.86958 26 30 14
0.974587 0.659085 6.71097 105 114 89
1.06416 0.728819 6.9045 104 68 57
0.963972 0.792054 6.57937 100 101 79
0.957149 0.830424 6.53972 109 110 90
0.873143 0.90408 7.10985 23 8 4
1.05274 0.95745 7.08952 122 94 88
1.14755 1.09185 7.27503 104 81 77
1.18459 1.20561 7.42978 68 39 34
0.973327 0.556771 7.19894 124 120 108
0.898385 1.10621 7.24928 108 80 73
1.24544 1.15557 7.52644 106 70 64
1.18629 1.20443 7.42034 81 52 47
1.17151 1.20654 7.39604 137 113 112
1.13553 1.22906 7.39272 81 44 38
0.583746 0.649511 7.06644 132 124 88
0.890842 0.949534 7.11647 19 3 2
0.878087 1.03696 7.21087 102 77 74
0.894785 1.10331 7.25045 106 70 64
1.00586 0.174791 7.00997 94 100 52
0.977718 0.556282 7.20397 126 122 116
1.25528 1.14351 7.48531 86 54 48
1.05259 0.673808 7.02195 80 65 55
0.875644 0.938841 7.11289 116 86 76
1.06373 1.24845 7.37281 143 110 106
0.884687 0.943515 7.12188 33 8 4
1.23539 1.15683 7.5131 98 64 57
1.67358 -0.0227983 6.99618 142 144 105
1.03215 1.16088 7.25137 51 16 13
1.04729 1.23291 7.32347 81 37 28
0.880315 0.902094 7.08799 24 6 3
0.7332 0.625029 6.8878 139 130 90
0.876978 0.93564 7.105 116 86 76
1.03125 1.08501 7.18993 64 16 8
1.00583 0.535462 7.24351 104 105 104
0.912224 1.18223 7.30468 69 40 32
1.01679 0.788479 7.00187 60 16 6
0.92399 0.78959 6.58487 108 102 76
1.03019 1.24331 7.34897 82 40 30
1.04315 1.14852 7.24365 114 80 74
0.922289 0.703862 6.95203 10 4 2
0.687439 0.624922 7.20447 119 110 94
0.651602 0.623776 7.18667 120 102 86
0.665249 0.679055 7.03869 94 76 52
0.852504 0.558028 6.86605 126 114 82
0.580485 0.627227 7.3285 99 83 68
1.06585 0.697427 6.98234 26 10 4
1.007 0.551013 7.23726 120 120 120
0.73727 0.622928 6.75213 62 68 52
1.21616 1.15223 7.41213 122 94 92
0.00927952 0.692162 8.63743 98 86 78
0.821467 0.908445 7.10066 124 84 65
0.877312 0.936784 7.10818 117 88 80
0.892935 0.943526 7.10917 25 6 4
0.919509 1.18086 7.29649 90 66 66
1.07442 0.707212 6.94405 24 8 4
1.20931 1.16571 7.42726 123 101 100
1.22054 1.07737 6.7654 83 45 38
1.47617 0.280164 7.34593 94 100 60
0.9762 0.628416 6.59857 48 46 30
0.86435 0.808664 7.00278 115 93 87
1.15077 1.09658 7.27486 116 90 88
0.91224 0.722727 6.66684 144 106 74
1.04956 0.913331 7.07155 122 98 94
1.33843 0.242588 7.09623 75 84 66
0.912125 0.740519 6.64882 144 130 101
1.04432 0.914776 7.08625 118 94 91
1.23232 0.941589 7.20258 36 7 4
1.1677 0.961869 7.17687 114 86 83
1.02708 0.725085 6.96225 16 7 3
1.65532 -0.0218601 7.05259 86 90 48
1.03101 1.14637 7.2615 80 32 24
0.870002 1.03348 7.2269 128 100 94
1.1082 -0.440363 7.53158 110 114 62
1.15346 -0.0606452 7.22278 134 141 98
1.06226 -0.119689 7.44035 112 118 70
1.38362 0.258462 6.37854 123 124 84
0.918837 0.265129 7.24968 150 152 104
0.659214 0.736225 7.0652 110 66 36
0.711069 0.732714 7.04479 80 42 13
0.86926 0.797705 6.96625 80 38 18
0.874767 0.798715 6.98925 62 22 10
0.865422 0.816594 7.02513 36 10 4
0.880539 0.905677 7.08297 34 10 6
0.712515 0.993326 7.28963 93 64 44
0.950386 0.869131 6.4992 103 111 92
0.894842 1.01681 7.15963 135 102 93
1.14713 -0.0703735 7.24824 126 136 94
1.63482 -0.00410489 7.05527 126 124 81
1.38279 0.2592 6.38158 150 152 108
0.974688 0.244742 7.15908 152 152 107
0.906079 0.255609 7.2851 152 154 104
0.633451 0.658363 7.15412 128 98 64
0.578165 0.659845 7.41054 121 108 90
0.636818 0.662642 7.21789 50 29 12
0.920828 0.665275 6.88093 14 18 4
0.966846 0.715417 6.67293 114 120 95
0.851865 0.801838 7.01154 78 38 22
0.871779 0.798888 6.99813 62 22 10
0.779891 0.909547 7.08468 134 120 96
0.876925 0.898046 7.04597 30 8 5
0.880084 0.904927 7.08683 24 4 2
0.699763 0.99781 7.32267 88 59 38
0.896306 1.03179 7.17632 112 90 87
1.45262 0.975065 6.94792 95 68 50
1.43209 0.968288 6.85928 63 36 21
1.05833 -0.163214 7.48045 114 118 72
1.57252 0.0193539 7.06186 90 90 44
1.50702 0.0956976 7.04941 98 98 74
0.987259 0.250647 7.11723 156 156 111
0.685887 0.78913 7.12675 125 104 78
0.867733 0.800419 7.01538 74 28 14
0.868822 0.804409 6.98735 122 100 96
0.873079 0.814369 7.01051 32 9 3
0.952954 0.830548 6.55357 112 117 98
0.951917 0.869884 6.49164 105 110 92
0.886076 1.03673 7.20543 112 90 87
1.42878 0.976929 6.90215 83 58 45
0.932764 1.00646 6.49428 87 76 52
0.922717 1.01274 6.50527 114 103 87
0.693484 0.731777 7.07026 89 50 22
0.716801 0.762609 7.02851 80 40 17
0.841685 0.80719 7.02948 54 16 4
0.861574 0.812905 7.04078 40 10 4
0.824638 0.890004 7.10234 37 6 0
0.947608 0.8315 6.56577 112 117 98
0.786831 0.910114 7.0673 141 128 102
0.950216 0.870512 6.49547 105 111 92
0.892559 1.0225 7.17123 116 92 86
1.66527 -0.0736201 7.1827 120 126 80
0.929824 0.660742 6.86422 16 16 3
0.729485 0.689828 7.05946 34 20 12
0.713259 0.704802 7.03214 72 38 20
0.658347 0.733365 7.05553 102 56 28
0.730507 0.773391 6.99857 118 90 69
0.86209 0.803058 7.00021 114 88 81
0.861681 0.844449 7.04403 116 87 78
0.725121 0.987318 7.25455 128 105 82
1.5706 0.0186705 7.06137 143 146 93
0.87639 0.231206 7.36242 158 162 110
0.583623 0.695389 7.42693 20 12 4
0.70411 0.68969 7.12084 27 16 8
0.7056 0.705794 7.04347 74 40 22
0.709492 0.765068 7.04573 77 38 16
0.850664 0.789259 6.99504 132 90 64
0.876832 0.812057 7.00726 29 6 1
0.962294 0.793659 6.57971 106 109 90
0.966534 0.828806 6.51424 102 104 86
0.939534 0.846229 6.60802 146 138 115
1.5724 0.0270015 7.03983 109 110 62
0.921163 0.854036 6.64413 142 138 116
0.754375 0.929286 7.14178 140 130 106
1.45903 0.94862 6.82706 82 40 21
1.42714 0.974492 6.8822 134 114 105
1.4561 0.264715 7.39627 76 67 28
0.663351 0.750979 7.08566 156 134 106
1.44235 0.976258 6.93942 91 52 32
0.950622 0.988323 6.47701 71 64 35
0.0512495 0.797352 10.3647 116 86 65
1.6995 -0.0204653 6.97781 75 82 54
1.63673 0.00844584 7.00917 114 115 74
1.15559 0.387247 6.84992 90 98 88
0.918928 0.595004 6.76234 92 95 69
0.669453 0.637843 6.6578 74 77 50
0.978361 0.610463 6.75569 110 124 88
0.942947 0.592646 7.20115 60 66 51
0.6185 0.655664 7.05978 96 54 32
0.976113 0.661359 6.70501 114 118 88
1.04844 0.686658 6.93367 46 34 31
1.05676 0.693244 7.00663 39 26 19
0.875069 0.747372 6.99274 90 66 55
0.768521 0.768422 7.50429 65 44 36
1.05737 0.723937 6.91187 50 20 11
0.92586 0.747994 6.6223 146 139 112
0.857991 0.799502 6.99662 86 46 26
0.870112 0.800685 7.00399 63 24 7
1.18743 0.962947 7.14268 42 12 10
1.16754 0.998996 7.18683 121 104 98
1.10408 1.01592 7.15432 93 49 42
1.04931 1.06069 7.1728 124 94 86
1.15887 1.07677 7.23915 119 92 88
1.15639 1.09417 7.25435 118 93 90
1.24017 1.1508 7.47671 122 96 91
1.24377 1.17007 7.53541 79 51 45
1.21766 1.15566 7.4226 80 54 54
1.22921 1.17016 7.49673 80 60 58
1.14388 1.17067 7.31514 120 98 96
1.0423 1.21475 7.29862 127 88 78
1.12861 1.23319 7.39866 100 64 57
1.08907 1.23588 7.3407 78 38 30
1.12173 1.23395 7.36507 133 98 91
1.11604 -0.441554 7.52236 93 99 48
1.64357 0.00758438 7.00231 161 163 120
0.633906 0.568231 7.00296 140 98 72
1.02196 0.532421 7.22908 94 99 93
0.630377 0.654205 7.04081 98 58 37
0.63858 0.681382 7.08176 170 146 124
1.05773 0.680299 6.98341 33 16 7
0.971859 0.706564 6.66732 106 109 78
0.995346 0.701678 6.99028 26 12 10
0.845831 0.848093 7.0748 122 83 73
0.879786 0.938313 7.10583 116 85 78
1.17529 0.959119 7.15186 121 96 92
1.16455 0.967172 7.1598 44 14 8
1.17737 0.966939 7.16852 38 11 10
1.16668 1.08539 7.22307 120 96 93
1.25071 1.14571 7.46869 74 40 36
1.2238 1.15174 7.40911 79 52 52
1.04248 1.23985 7.32966 80 40 34
1.07471 1.23748 7.35197 90 52 43
1.12971 1.22915 7.37961 86 51 44
1.11725 1.24325 7.37433 83 46 38
1.64559 0.00724148 7.00066 158 161 116
1.65354 0.00499722 7.00553 41 44 15
1.6281 0.00894493 7.02362 148 150 105
1.6187 0.00575518 7.03864 95 97 57
0.638354 0.628362 7.03908 141 97 78
0.624067 0.667481 7.05444 163 132 110
1.05331 0.696184 7.01569 48 34 28
1.06832 0.69883 6.93038 48 22 10
1.08044 0.706938 6.92725 36 18 12
0.88979 0.749723 6.97122 43 16 6
0.970962 0.747522 6.62178 97 102 76
0.861547 0.807332 7.00902 122 95 85
0.913767 0.832369 6.55828 124 114 94
0.958209 0.8277 6.54151 94 94 72
0.937289 0.871601 6.52149 82 87 58
1.05018 0.911607 7.06909 116 89 84
1.04259 1.07945 7.1761 56 12 4
0.957303 0.989924 6.45308 84 74 50
0.948378 0.997336 6.45507 98 86 66
1.18572 1.20473 7.41005 81 54 53
0.995228 1.25509 7.34529 104 58 38
1.10092 1.24892 7.41066 140 104 98
1.61885 0.00733235 7.03511 90 92 52
0.997488 0.610392 6.72061 104 116 79
0.984913 0.665274 6.71648 20 18 8
0.989072 0.709581 6.63265 110 112 80
0.996184 0.706011 6.99367 14 4 0
0.981197 0.713995 6.64174 106 107 77
0.879233 0.747363 6.97278 94 76 64
0.937668 0.792936 6.96567 116 63 36
0.969679 0.790806 6.5711 104 104 82
0.960745 0.828642 6.53518 104 102 80
0.884607 0.89222 7.0349 28 8 2
0.950572 0.868573 6.50088 96 100 74
0.872386 0.937207 7.11659 118 86 76
1.02818 0.969706 7.12001 55 18 8
0.895229 1.02951 7.17807 120 99 94
1.16437 1.01772 7.20133 119 102 98
1.03614 1.08285 7.18593 56 12 4
1.19965 1.18874 7.33445 134 111 110
1.1117 1.24653 7.37008 78 43 35
1.66914 -0.0116813 6.97705 122 126 78
0.727193 0.609082 7.01184 56 56 38
0.624079 0.650952 7.10372 86 62 37
0.641438 0.666282 7.02725 166 140 117
0.9973 0.656249 6.67132 87 93 62
0.958698 0.829551 6.53833 104 102 80
0.862554 0.895256 7.05882 28 9 3
1.1559 1.02022 7.21955 108 91 86
1.22058 1.17774 7.49424 76 48 48
0.557188 0.648345 7.10866 140 128 96
0.979884 0.711214 6.64399 102 105 76
1.04798 0.757146 7.03221 40 13 6
0.961066 0.794089 6.58067 110 109 88
0.936943 0.875586 6.51715 95 97 72
1.16564 1.01305 7.19366 120 104 100
0.910996 1.09632 7.21653 108 74 67
0.975327 0.718193 6.96796 16 7 6
1.03165 0.787289 6.93148 63 20 8
0.968244 0.817818 6.57152 90 88 66
0.928244 0.951638 7.10392 28 8 3
1.05227 0.957675 7.08698 107 74 68
0.945666 0.987716 6.48299 71 68 36
0.931911 0.996356 6.48741 82 72 48
1.00987 1.16711 7.26565 41 11 2
1.15262 1.15235 7.27815 94 62 60
1.03866 1.23527 7.33302 89 44 38
1.48772 0.0866489 7.07075 48 51 26
0.580922 0.569783 7.05509 148 128 76
0.447954 0.676637 7.32416 124 98 78
1.08158 0.704897 6.9362 14 6 4
0.889749 0.995801 6.43048 101 96 76
0.951112 0.985469 6.46978 113 108 81
1.16509 1.20941 7.40235 74 44 42
0.876608 0.934641 7.10798 110 77 66
1.17677 0.957035 7.14885 122 95 88
0.879895 0.933882 7.10155 110 76 64
1.05609 1.08116 7.19013 50 11 4
0.637881 0.625149 7.00744 131 107 86
0.913216 1.17693 7.30457 124 82 76
0.622025 0.556581 7.07575 132 124 68
1.17731 0.956033 7.14574 106 76 70
0.875092 0.93579 7.10768 100 64 52
1.0442 1.06607 7.17789 110 68 56
1.02359 1.16107 7.25023 42 10 4
0.596799 0.562322 7.10913 128 118 65
1.04612 0.681483 7.02492 76 55 44
0.971084 0.7492 6.60887 76 82 54
1.14712 1.15396 7.29323 118 90 87
1.00221 1.24463 7.36778 103 50 32
1.35141 0.487765 6.37914 147 147 104
-3.94446 1.69091 15.9517 134 104 82
0.922173 0.742595 6.62874 106 100 74
0.926367 0.824226 7.42542 87 44 22
0.89315 1.19516 7.34988 92 50 45
1.24961 1.1532 7.52502 96 66 60
0.953685 0.818735 6.59598 110 105 84
1.26363 0.662354 6.48455 66 44 30
0.941006 0.825642 6.60957 153 144 125
1.15869 1.22071 7.43393 108 86 86
0.739892 1.08533 7.34125 101 62 42
0.925144 0.94638 7.09255 28 7 4
1.20855 0.334162 6.70691 96 100 93
0.724808 0.93073 7.22442 139 118 96
0.710957 0.961753 7.32978 119 80 66
1.66925 -0.0147956 6.99171 94 97 54
0.915217 0.598756 6.76474 54 56 34
0.716265 0.9303 7.23531 151 134 110
0.927159 0.715754 7.1444 43 26 16
1.22299 1.16298 7.53686 83 52 46
1.65552 0.00161746 7.0137 38 41 18
1.21893 1.16566 7.53973 92 62 58
0.718442 1.04741 7.35791 131 102 85
0.737286 1.08705 7.34282 130 103 82
0.74278 1.12764 7.39857 138 116 96
1.03976 1.14633 7.24562 98 58 52
0.676499 1.01285 7.35696 106 76 54
0.746843 1.17172 7.42173 98 66 52
1.00369 0.5325 7.24207 97 99 95
1.235 0.315044 6.64841 87 90 84
1.1553 0.393688 6.84973 86 96 84
0.885949 0.774351 6.97024 108 58 28
0.938831 0.79251 6.96391 89 37 16
1.23054 1.09139 7.37451 115 88 88
0.942803 0.791016 6.9562 118 68 42
1.20654 0.330331 6.71451 94 100 93
0.938657 0.792037 6.96281 84 32 12
1.1779 0.958607 7.14736 124 100 96
1.23209 1.07675 7.33778 61 30 28
0.983707 0.746515 6.6002 95 98 72
0.968444 0.755764 6.61742 98 99 70
0.889895 0.798549 6.97742 60 19 10
1.17607 0.957741 7.15133 119 96 91
0.955115 0.985958 6.4705 70 68 32
1.23417 1.17672 7.56988 80 53 44
0.698788 1.00751 7.32145 114 89 66
1.03983 1.14206 7.23749 91 44 32
0.988883 1.17591 7.31273 56 16 8
0.723248 -0.004601 7.25012 97 104 70
0.841152 0.193385 7.18883 108 114 79
1.00038 0.186756 7.3739 148 156 126
0.947257 0.164688 7.51721 138 144 117
1.12575 0.413081 6.98625 132 141 114
1.12019 0.418503 6.99622 143 150 122
1.11899 0.420675 6.9938 116 122 98
1.01788 0.429309 7.49846 128 112 81
0.786257 0.558221 7.00319 140 139 91
0.765078 0.61865 6.86807 134 128 86
0.638851 0.626762 7.0344 132 88 70
0.988664 0.65696 6.68861 108 118 91
0.972744 0.66534 6.70885 100 108 82
1.04996 0.680882 7.00135 36 20 10
0.976543 0.705925 6.66074 114 120 87
1.02143 0.70077 6.93488 22 6 2
0.967529 0.789554 6.57812 101 104 81
0.763795 0.863197 7.10073 138 114 91
0.87237 0.89073 7.07115 106 70 63
0.759676 0.9602 7.19253 146 119 97
1.1979 -0.0810565 7.17418 138 144 98
1.09967 0.154199 7.14204 131 139 98
1.01565 0.134796 7.35918 69 78 38
1.14516 0.387186 6.87212 92 100 92
1.12644 0.414364 6.98078 108 117 92
0.802059 0.605213 6.89255 74 71 54
0.919726 0.74264 6.84052 94 70 46
0.98168 0.777425 6.6228 50 59 40
0.759098 0.864837 7.10786 151 130 106
0.780497 1.02322 7.24152 128 100 81
0.893387 1.03229 7.18264 106 84 82
0.953187 0.991584 6.46211 78 72 42
0.956973 0.993476 6.44249 106 94 77
1.12826 0.175115 7.06305 136 143 100
1.17818 0.221279 6.92419 104 110 71
0.846704 0.19603 7.17464 100 107 70
1.17822 0.296188 6.90444 80 89 60
0.795626 0.590625 6.82028 74 78 56
0.779053 0.620358 6.84658 136 128 84
0.992064 0.705404 6.62973 113 116 86
0.970974 0.716652 6.65758 98 101 74
0.958605 0.756806 6.63413 100 100 73
0.958577 0.816131 6.59537 142 142 123
1.30827 0.264942 6.44196 131 132 92
1.11555 0.177092 7.08779 141 148 106
0.723038 0.970745 7.26071 148 120 98
0.903741 0.940375 7.0892 28 6 2
0.896699 1.0191 7.15988 110 82 72
0.959823 0.988978 6.45302 77 71 41
0.954238 0.994908 6.44693 106 94 76
0.796976 0.0491351 7.29817 89 102 54
0.829527 0.586738 6.86643 76 78 56
0.875952 0.803106 7.005 74 27 18
0.867935 0.814102 7.02405 39 14 7
0.863912 0.842334 7.03514 101 62 53
0.894685 1.02926 7.17396 118 94 90
0.811616 1.09222 7.25772 135 110 90
1.15999 1.02789 7.24938 38 12 10
1.21072 1.09405 7.44213 98 69 70
1.66055 -0.0188572 7.02229 156 161 112
1.233 0.274832 6.75796 140 148 108
1.07761 0.725547 6.8784 106 72 62
0.825539 0.791362 7.01075 118 68 41
0.984371 0.92057 7.05574 36 6 0
0.978055 0.97743 6.43854 68 66 30
1.03498 0.411047 7.20534 112 120 91
1.0577 0.70406 6.98979 22 10 4
1.22396 0.741013 6.25525 152 120 94
0.904774 0.854583 6.65083 154 144 121
0.890143 0.997235 6.42874 65 61 38
0.960894 0.822644 6.57574 82 80 55
0.860585 1.24935 7.4057 84 54 46
1.58102 0.0216485 7.05275 132 132 90
1.50195 0.309776 6.23216 120 126 82
0.975204 0.670382 6.73201 16 16 4
0.915435 0.832205 6.55472 123 115 90
-0.185487 -0.330155 9.81477 115 114 76
1.46855 0.12331 7.0211 74 81 52
1.67525 -0.0278422 7.01376 122 127 82
0.994701 0.163816 7.03704 120 127 78
1.01606 0.178154 6.9827 91 98 48
0.638589 0.7322 7.08649 103 59 34
0.967829 0.986148 6.434 80 72 42
1.62461 0.0335126 6.95332 158 162 110
0.975577 0.98202 6.42158 76 69 38
1.65669 -0.010767 7.04779 42 48 19
1.57591 0.018905 7.06081 122 125 82
1.3901 0.183365 7.05087 68 76 52
1.32394 0.245006 7.06599 82 86 66
0.589943 0.532596 7.10333 142 128 78
0.91493 0.55217 6.80498 109 108 58
0.99295 0.689634 6.68511 118 109 84
0.894811 1.01942 7.16776 124 90 80
1.14809 1.15081 7.29623 122 99 96
1.67349 -0.0244492 7.0013 130 134 92
1.57606 0.00879884 7.0848 139 142 100
1.57089 0.0144835 7.07474 94 98 54
1.01396 0.428627 7.48809 92 72 56
0.897008 1.02982 7.1764 114 86 76
1.66747 -0.0187628 7 100 104 59
0.79443 0.650739 6.87708 158 135 108
1.00594 0.699916 6.97264 18 5 3
0.886377 1.0237 7.18256 115 82 70
1.18282 0.955707 7.13767 115 90 84
0.910733 1.09644 7.22591 118 78 70
1.04938 1.14865 7.23939 116 86 82
0.884944 0.558635 6.83087 139 138 86
0.862543 0.70598 7.02711 16 5 1
0.990839 0.74438 6.59503 100 104 78
0.782851 0.81993 7.11188 101 56 34
1.25666 1.13542 7.56402 103 78 70
1.1349 1.23006 7.3985 72 35 30
1.65615 0.00251053 7.00582 38 46 15
1.56583 0.0149106 7.07587 130 135 88
1.20351 0.812876 7.0358 98 72 67
0.887563 0.886978 7.02843 43 12 3
1.28665 1.04312 7.50215 98 74 69
1.00379 0.973092 6.40852 92 82 58
1.00924 0.973879 6.39468 104 92 72
0.904304 1.18622 7.31815 97 60 52
1.64912 -0.007915 7.03679 39 46 20
1.09054 0.712892 6.91257 29 14 8
1.0171 0.754338 6.90081 175 128 98
0.960419 0.820308 6.58615 132 128 108
0.981537 0.920621 7.06395 32 3 0
1.0643 1.13187 7.19973 116 80 72
1.02235 1.25844 7.32344 115 70 55
1.06556 0.718661 6.95345 20 9 4
1.26552 0.755626 6.88894 156 117 101
0.992003 0.816816 6.54601 154 149 130
0.889463 0.950439 7.12174 22 7 4
1.00003 0.919 7.04494 33 6 2
0.95265 0.942909 7.06184 30 7 2
0.852808 0.723964 6.97732 38 26 14
1.23432 0.735574 6.9302 104 68 44
1.66938 -0.0133593 6.99092 94 98 53
0.835398 0.857449 7.09229 121 86 77
1.24012 1.08409 7.34672 114 90 84
1.21062 1.15307 7.40163 61 28 26
1.20159 1.1987 7.44773 65 50 46
1.17765 1.21234 7.42863 72 47 44
0.967027 0.416378 7.73427 167 143 101
0.0769911 0.700504 7.90441 135 118 94
-1.54525 1.06342 10.3393 62 56 39
1.061 0.907608 7.04806 112 85 78
1.4482 0.863452 6.79685 98 81 45
0.914744 1.185 7.30955 111 76 69
1.20549 1.194 7.43658 79 64 62
1.00371 0.129361 7.3822 94 98 58
1.05471 0.783644 6.96692 71 34 15
1.65515 0.00114981 7.01313 34 39 18
1.31777 0.242604 6.55955 120 124 84
1.01473 0.132418 7.36095 84 88 50
1.08473 1.12088 7.17379 94 50 44
1.08167 0.712757 6.92419 26 12 5
0.882212 1.24642 7.3637 90 60 55
1.17286 0.827218 7.06289 24 4 1
0.752314 0.927574 7.1787 156 135 114
0.720688 0.878967 7.17812 150 127 108
0.919638 0.535903 7.17459 30 26 12
1.01426 1.16251 7.24907 50 12 7
1.00532 1.26987 7.35836 108 64 50
1.12972 1.2282 7.3226 114 78 70
1.03911 0.436641 7.44509 100 82 61
0.753593 0.80608 7.09792 66 32 12
1.1703 1.07178 7.21725 129 102 99
1.19294 1.20066 7.40081 62 36 34
1.05138 1.24964 7.32005 152 116 104
1.46655 0.356731 6.37263 114 118 81
0.730742 0.815124 7.1251 139 112 94
1.18583 0.82438 7.05716 26 4 0
1.04842 0.96401 7.08809 54 18 8
1.04383 1.15405 7.25192 120 94 92
1.46534 0.119625 7.03565 76 82 56
0.923122 0.696194 6.92638 18 6 1
0.973629 0.75126 6.61196 103 103 75
1.2457 0.771792 6.95097 84 56 42
0.722354 0.984972 7.27228 150 130 106
1.01858 1.26138 7.3433 104 62 46
1.21015 0.818326 7.04951 21 8 4
1.19205 0.904277 7.09612 106 91 87
1.17335 0.959973 7.15635 119 98 92
0.956078 0.988405 6.46059 82 72 45
1.0022 1.25135 7.33305 98 49 30
1.37087 0.503384 7.22227 57 36 16
0.80742 0.816098 7.09352 120 86 70
1.19291 0.866994 7.1007 28 12 7
1.1701 0.915789 7.1107 40 16 11
1.7799 0.695071 5.8338 41 19 12
1.01899 0.710598 6.96527 14 8 4
1.22616 0.741376 6.95428 114 82 63
0.72964 0.957737 7.22959 130 104 82
0.951145 0.991377 6.46147 86 76 50
0.9736 0.60574 7.23111 79 78 67
0.728675 0.95668 7.23083 142 118 95
0.693077 1.06272 7.379 144 130 110
0.75937 1.12784 7.36858 140 116 96
0.965346 0.965634 6.48736 56 61 30
0.623369 0.61887 7.04507 126 90 67
1.19891 0.822921 7.03334 31 7 4
1.06083 0.905166 7.04714 124 98 91
1.04618 0.966636 7.09629 52 17 8
0.795716 1.10744 7.31459 128 96 78
1.04534 1.21823 7.31377 55 14 8
-1.51252 1.005 10.4127 140 124 115
1.2109 0.782733 7.03349 36 9 2
0.913705 0.83196 6.55848 120 113 90
0.891314 1.01899 7.17219 118 86 76
0.899334 1.02427 7.18304 54 19 12
1.18078 0.991431 7.17467 53 24 20
0.750281 1.12555 7.38768 138 111 93
-1.65549 1.02397 10.6265 138 124 116
0.897545 0.779062 6.86938 144 108 89
0.910779 0.789386 6.60407 130 122 96
1.04899 0.795392 6.93398 166 120 98
0.735696 0.875428 7.16204 135 110 90
1.19465 0.866385 7.09604 27 10 6
0.424175 1.11109 7.91604 35 6 1
0.867281 0.623668 6.80568 147 140 104
1.07107 0.78064 6.96753 80 40 21
0.742558 0.926805 7.19564 146 121 97
1.18587 0.863243 7.08975 106 84 80
0.931068 0.940126 7.05557 24 5 2
1.1783 0.994257 7.18061 46 20 14
0.953558 0.993413 6.45193 115 102 84
0.870812 0.843847 7.02898 118 82 74
0.93781 0.947795 7.09187 31 6 0
1.17516 0.911607 7.12403 68 40 39
1.13769 1.09869 7.29226 105 84 82
1.15183 0.302439 7.18531 150 156 118
0.995468 0.708673 6.9694 68 42 36
0.999353 0.740403 6.67706 130 112 88
1.19702 0.810228 7.04552 88 56 51
0.754093 0.97092 7.21514 138 116 93
1.18711 0.999585 7.14246 102 81 78
1.1425 1.09345 7.27322 92 64 62
1.00257 0.758169 6.68528 112 80 58
0.834737 0.957783 7.10952 114 87 66
0.83021 1.09498 7.24568 140 118 99
0.766254 1.16129 7.3802 134 112 96
1.16681 1.07622 7.21253 71 36 33
1.02564 1.25641 7.31631 114 68 56
0.882734 0.890663 7.0347 22 6 3
0.859237 1.25307 7.39631 112 84 76
1.51737 0.0431426 7.07999 98 102 61
1.34058 0.24752 7.08414 74 79 62
0.637421 0.674369 7.08634 98 60 38
0.975913 0.704564 6.66013 110 115 82
0.921032 0.80141 6.64213 99 100 76
1.61609 0.00134078 7.05557 74 78 40
1.52671 0.0488097 7.05627 121 124 87
1.51737 0.0431426 7.07999 98 102 61
1.5044 0.100863 7.03359 82 86 60
0.828387 0.750919 6.9694 132 95 64
0.436103 0.703534 7.36005 164 145 118
0.698972 0.717032 7.01392 116 98 64
0.653369 0.977966 7.46632 40 10 3
1.65867 -0.0449931 7.06923 158 163 116
0.975144 0.12934 7.24205 121 124 96
0.920115 0.848974 6.62989 156 146 128
0.657624 0.795873 7.23295 154 112 87
0.983983 0.715328 7.03885 14 8 4
0.951238 0.737255 6.79942 104 70 46
-0.117006 0.707893 7.40626 157 146 120
1.64125 0.0136036 6.99426 116 119 78
1.59953 0.0210745 7.03468 110 112 72
1.04744 0.421461 7.37142 154 154 120
0.89632 0.520676 6.85779 102 100 52
0.701803 0.526714 7.25334 136 127 83
1.00957 0.430496 7.8229 103 77 51
1.08722 0.428429 7.72577 126 110 96
0.920732 0.553572 6.91352 140 138 88
0.682711 0.560538 7.23542 134 126 76
0.235636 0.643693 7.04394 136 133 92
0.895679 0.582245 6.95617 63 64 49
0.60488 0.630086 7.07674 123 93 71
1.42502 0.52118 7.1829 116 81 69
0.626982 0.646883 7.25733 130 113 92
0.619255 0.655733 7.25733 128 109 90
0.547953 0.677051 7.32902 141 122 106
0.648104 0.683687 7.19191 150 135 114
0.944008 0.690702 6.65234 117 111 86
0.744992 0.720477 7.1708 17 4 0
0.989296 0.698786 6.68101 160 155 134
1.3958 0.613294 7.21488 72 48 31
0.993514 0.705032 6.63398 108 112 85
0.695329 0.747227 7.14945 79 59 42
0.627125 0.760581 7.29581 150 127 112
0.859819 0.73306 6.90663 106 82 54
0.992567 0.745116 6.59445 102 108 86
0.807112 0.783909 6.99397 132 95 75
1.09942 0.750161 6.9174 104 74 60
0.764479 0.819475 7.10795 93 48 24
0.958128 0.794836 6.5827 102 106 84
0.953559 0.80005 6.61471 98 108 88
0.94212 0.808232 6.62162 112 118 100
0.966646 0.809909 6.58946 152 150 129
1.22078 0.806446 7.00673 92 72 56
1.04668 0.959468 7.10139 120 88 78
1.05735 0.960935 7.08915 116 88 80
0.877345 1.04082 7.20559 110 76 68
1.28226 0.975895 7.26424 82 51 47
1.26744 0.993327 7.27847 106 86 82
0.912142 1.09512 7.22358 126 88 78
1.01805 1.17788 7.30429 56 17 10
1.23695 1.16234 7.58807 51 26 16
1.24838 1.14994 7.47824 65 36 32
1.23362 1.15993 7.49083 119 98 95
0.983148 1.25023 7.38443 98 52 33
1.19351 1.20096 7.42898 57 32 29
1.16657 1.21872 7.43781 84 62 61
1.05059 -0.5094 7.6657 101 107 52
0.657936 0.527444 7.30625 144 136 90
0.578258 0.631289 7.31226 116 102 83
1.39579 0.519071 7.25297 110 76 64
1.03335 0.667543 6.68789 100 74 50
0.966039 0.686841 6.72002 117 102 74
0.842719 0.721693 6.967 62 44 28
0.774581 0.736978 7.05585 58 39 21
1.07726 0.690397 6.96835 23 12 4
0.636312 0.774926 7.27602 110 89 74
0.971192 0.741115 6.57596 154 146 124
0.798645 0.775205 6.99841 106 62 38
0.778774 0.792842 7.04493 81 46 23
0.761855 0.806283 7.07412 142 108 84
1.05007 0.758171 6.97208 59 24 12
0.950115 0.801808 6.58259 102 102 84
0.94556 0.804067 6.6228 89 99 79
0.989856 0.804963 6.56547 144 141 120
1.25791 0.754862 6.9197 121 92 68
0.793002 0.878054 7.1663 32 3 0
0.955618 0.945118 7.07762 40 6 0
1.09137 0.943769 7.03377 116 86 74
0.906281 1.01601 7.15283 114 78 66
0.921395 1.02077 7.1537 50 16 4
1.15579 1.14583 7.27944 116 86 84
1.1392 1.17031 7.32035 108 86 82
1.09744 1.19218 7.17966 106 55 36
1.1856 1.20678 7.39335 102 80 80
1.14875 1.22207 7.37101 70 33 26
1.65809 0.0079274 6.99569 38 44 16
1.392 0.182093 7.04779 70 78 56
0.937631 0.411786 7.64812 74 56 36
0.617699 0.559271 7.3192 136 130 77
1.32537 0.482319 7.35979 39 24 3
1.41436 0.477966 7.28934 109 77 62
0.582873 0.6348 7.33017 109 101 86
1.42886 0.517043 7.18422 104 72 60
0.559715 0.657478 7.32934 126 108 86
0.615819 0.685839 7.22996 153 136 114
0.936511 0.690783 6.75093 116 103 76
1.04129 0.683825 7.04288 77 56 40
0.818303 0.731224 7.00742 75 56 39
0.654164 0.75734 7.26441 146 122 106
1.09127 0.688112 6.94739 28 16 7
0.924038 0.7239 6.83161 117 91 62
0.999194 0.74404 6.58618 102 107 85
0.768295 0.81386 7.08354 158 118 96
0.915048 0.791542 6.59298 124 116 97
0.926607 0.817563 6.62898 139 140 118
0.90415 0.844649 7.00591 80 50 42
0.952873 0.83517 6.95332 76 46 40
1.18725 0.825221 7.05085 26 4 0
1.19073 0.861628 7.08004 95 66 56
0.888044 0.965576 7.16472 36 6 2
1.08643 0.908328 7.02481 38 12 6
1.22061 0.889638 7.04609 112 88 82
1.02985 0.968909 7.1135 50 14 6
1.05945 1.13511 7.23089 54 17 10
1.04464 1.15061 7.24685 110 80 74
1.21932 1.14987 7.3966 117 92 92
0.959013 0.413801 7.73687 166 148 106
0.524923 0.526326 7.47037 144 135 84
0.549841 0.635137 7.13913 129 97 74
0.656954 0.677885 7.18572 154 138 116
0.914387 0.686135 6.79905 126 86 60
0.988434 0.713073 6.63311 105 106 77
1.00239 0.70995 6.98711 18 9 5
1.05124 0.726455 6.97308 20 8 0
0.714693 0.822594 7.11188 106 80 62
0.978199 0.79662 6.58696 100 110 90
0.928377 0.831205 6.53922 130 121 100
0.976079 0.826947 6.51952 110 112 92
0.958619 0.928195 7.09868 30 4 1
0.939975 0.949403 7.09176 34 7 2
0.8609 1.01149 7.21358 36 5 0
0.739893 1.05525 7.32809 126 92 75
0.862204 1.03612 7.21891 118 88 78
1.04117 1.16474 7.27384 53 16 9
1.20238 1.17732 7.546 122 102 100
1.25308 1.15565 7.43787 70 46 46
1.19537 1.1981 7.42025 56 32 27
1.06179 1.23215 7.32193 117 70 56
1.0898 1.25692 7.35305 106 70 57
1.66527 -0.0177127 7.00013 111 114 66
0.479658 0.527229 7.52426 144 136 83
1.50298 0.477432 6.97788 92 70 38
0.902653 0.612385 6.74043 122 94 72
0.641042 0.650507 7.23424 135 116 95
0.614499 0.680894 7.23426 156 138 116
0.561093 0.727992 7.19903 118 82 52
1.36238 0.60998 7.23018 114 76 62
0.881909 0.719672 6.91134 84 60 38
0.650126 0.756516 7.2681 143 120 105
0.830585 0.756454 7.05878 52 32 18
0.718641 0.821692 7.10574 134 112 92
0.971449 0.792844 6.56385 102 102 82
0.916962 0.836375 7.0125 146 98 82
1.19292 0.861051 7.07546 102 75 66
0.853852 0.953751 7.16215 26 4 0
1.09122 0.89565 6.99966 101 70 64
0.89319 0.998104 7.16437 42 8 2
0.797323 1.03325 7.24449 148 124 107
1.02283 0.968657 7.13486 116 84 75
0.840789 1.04311 7.24497 120 87 78
0.964307 0.990562 6.43727 136 124 106
1.30469 1.10546 7.45379 106 83 76
1.22046 1.17143 7.62376 52 26 16
1.02918 1.25535 7.31834 106 60 42
1.06799 1.26886 7.38883 101 64 50
1.23289 -0.349004 7.49872 64 77 36
0.684865 0.526293 7.25506 147 138 78
1.04115 0.436781 7.76049 86 61 34
1.04089 0.60414 6.59277 140 113 90
0.647164 0.628466 7.23204 135 119 100
0.640719 0.647884 7.23548 109 90 68
0.615264 0.677048 7.23547 122 105 82
0.645595 0.757856 7.26906 110 92 78
0.930275 0.725614 6.82158 136 106 77
0.938724 0.992876 7.13823 42 11 2
0.865943 1.03581 7.21316 108 78 68
1.44728 0.907034 6.9189 44 20 18
1.23965 1.08695 7.3818 39 14 10
1.0207 1.23564 7.32975 136 94 80
1.29109 0.471966 7.63982 112 80 72
0.87321 0.627124 6.77995 142 112 88
0.787958 0.619393 7.05976 121 104 85
0.698046 0.670896 7.13723 139 122 100
0.821681 0.731125 6.97646 110 78 50
0.973422 0.707834 7.02496 10 6 2
0.689789 0.821619 7.17623 157 110 82
1.08804 0.856395 6.96972 76 48 42
0.954663 0.979187 7.08549 38 8 1
0.77669 1.04571 7.26726 146 130 114
1.16772 1.00484 7.17464 69 35 30
1.26902 1.00015 7.31318 50 20 16
1.06307 1.13335 7.40492 96 64 58
0.950599 1.21225 7.26261 98 68 63
1.19228 1.13404 7.21563 100 76 70
1.03193 0.0184449 7.37584 124 130 87
1.20622 0.389397 7.57216 96 97 62
0.611109 0.565965 7.01991 152 136 84
0.844032 0.551936 6.85149 144 136 78
-0.00256528 0.664186 7.188 158 150 124
0.805931 0.718833 6.88204 125 122 98
1.04525 0.719637 6.98469 16 9 4
1.16772 0.74648 7.03544 122 81 54
0.91602 1.22592 7.31706 50 17 12
1.20569 1.16572 7.41839 95 68 68
1.04766 1.24031 7.28577 102 57 42
0.96441 0.710384 6.69884 140 132 108
0.813024 0.771531 6.98097 99 54 28
0.923408 0.832586 6.54394 118 109 85
1.25157 0.776411 6.93561 56 24 10
1.03986 0.916426 7.07982 116 88 81
1.18407 0.91185 7.11418 112 95 88
1.17241 0.997256 7.17551 120 102 98
1.15914 1.0922 7.24599 108 84 81
1.24019 1.15192 7.57078 102 76 69
1.2087 1.16397 7.40471 58 28 26
1.07434 1.20141 7.26311 52 14 7
0.959652 0.749957 6.62775 99 104 79
0.798521 0.786461 7.00412 135 98 75
0.972833 0.791747 6.56567 98 100 76
0.850962 0.892671 7.07537 50 16 6
1.19788 0.816101 7.04815 108 83 77
0.92602 0.880933 7.02644 104 60 46
0.953775 0.869307 6.49861 98 100 79
1.16993 0.868229 7.11527 100 74 68
1.18051 0.912303 7.11792 108 88 82
1.23167 1.15617 7.58733 106 82 74
0.868159 0.733613 7.00182 104 78 62
0.968927 0.728722 6.751 144 124 98
0.763228 0.798151 7.03999 161 138 114
0.950272 0.795644 6.58766 102 105 82
1.17199 0.997309 7.19193 43 16 12
1.17361 0.998076 7.17302 120 102 98
1.21599 1.02144 7.39229 122 101 98
1.15417 1.08044 7.24862 122 95 90
0.961074 0.715572 6.66423 108 108 80
0.932119 0.8167 6.62382 138 136 114
0.908167 0.837137 7.02224 124 76 62
1.31232 0.971193 7.19163 112 87 84
1.01401 1.26788 7.35977 100 58 41
0.978832 0.655969 6.74028 122 113 72
1.35837 0.578618 7.31617 12 6 2
0.971452 0.719155 6.77118 130 96 64
0.963166 0.812567 6.58892 137 132 110
0.968882 0.828441 6.52373 112 111 90
1.27164 0.997982 7.29409 43 19 17
0.940931 0.713003 6.719 86 88 63
0.920877 0.744071 6.62756 122 113 88
0.98102 0.826622 6.51257 112 112 92
1.2776 0.986121 7.25848 96 70 66
1.32282 0.570276 7.40258 18 6 1
1.0329 0.801406 6.92956 158 108 78
0.975384 0.832277 6.5597 160 146 126
0.969471 0.81635 6.57467 109 106 85
1.25819 0.993376 7.28988 68 41 37
1.66763 -0.0185274 6.99919 98 102 56
1.59618 0.0110395 7.05881 112 113 70
1.19826 0.817811 7.04847 106 80 77
0.994206 0.718913 7.00983 24 6 2
1.17516 0.994695 7.18544 49 22 16
1.67462 -0.0247241 6.99946 116 122 79
1.56975 0.0137328 7.0733 111 115 72
-1.47212 1.04557 9.49496 156 144 121
1.04395 0.79639 6.94056 169 120 94
1.3306 0.246625 7.04798 70 75 53
1.04611 0.695766 7.01175 42 30 22
1.20493 1.15941 7.39969 72 36 30
1.10456 0.0326491 7.26633 118 128 86
1.12552 0.0499573 7.217 99 108 66
0.678386 0.758239 6.97144 88 88 58
1.08577 0.060404 7.26588 118 124 78
1.17991 0.139215 7.06676 152 156 106
1.02233 0.792108 6.94242 96 50 28
0.932587 1.00018 6.47542 92 80 58
0.460365 0.801979 7.75423 56 27 8
0.951045 0.969763 6.50829 54 56 24
1.17001 -0.214492 7.37899 118 130 86
1.6935 -0.0292752 7.00259 70 79 48
1.67077 -0.0219741 7.0003 144 144 106
1.00222 0.648581 6.83649 51 46 37
1.37474 0.611308 7.20233 96 58 42
0.940854 0.724576 6.71012 104 112 86
0.815135 0.77074 6.97497 102 60 34
0.76359 0.796992 7.06107 62 26 7
0.958556 0.830202 6.53601 108 108 88
1.26936 0.994945 7.28761 86 65 61
1.23733 1.07319 7.33746 58 30 27
1.29156 1.1123 7.49662 118 92 85
1.0605 1.15565 7.23375 56 20 14
1.24203 1.17996 7.51318 96 75 68
1.18802 1.19608 7.41353 122 101 98
1.69869 -0.0240932 6.98668 67 76 46
1.60516 0.0264296 7.01726 111 114 69
1.31375 0.247037 7.06999 34 38 18
0.996087 0.658193 6.67922 96 99 68
0.9965 0.77721 6.60077 48 59 41
0.957839 0.802183 6.60501 94 98 78
0.958444 0.83825 6.52997 110 109 91
1.25587 1.07202 7.31433 124 103 99
1.60273 0.0162509 7.04266 142 144 105
1.3269 0.244179 7.06075 84 88 66
0.813147 0.77359 6.98255 92 51 26
0.728898 0.819598 7.09571 103 77 54
1.00326 0.793854 6.56206 106 112 92
1.15686 -0.231571 7.40982 142 151 106
1.50684 0.0980391 7.0374 89 88 68
0.84514 0.745582 7.00999 28 14 6
0.954091 0.837773 6.5331 106 105 86
1.25484 1.06756 7.3132 118 99 95
0.917237 1.17977 7.30306 124 87 81
1.25599 1.14817 7.54545 58 34 27
1.28937 0.473592 7.613 148 136 109
0.925983 0.744139 6.62273 118 111 85
0.911323 0.792077 6.5958 118 112 90
0.904643 0.835848 6.55959 134 123 104
1.1823 0.865449 7.09073 101 76 67
0.971962 0.923854 7.07762 34 4 0
1.18061 1.00868 7.16549 112 96 91
0.820086 0.743757 7.0305 28 13 5
0.914189 0.992171 7.13839 33 6 2
1.09275 1.25683 7.36035 106 72 61
1.634 0.00771091 7.01252 112 112 71
1.66452 0.0108742 7.00819 46 52 30
1.40767 0.189179 7.06348 68 75 59
1.34928 0.592378 7.51215 79 70 46
0.684843 0.767264 7.07798 162 150 128
1.39391 0.184547 7.04155 76 84 60
